# .PCD v0.7 - Point Cloud Data file format
VERSION 0.7
FIELDS x y z intensity
SIZE 4 4 4 4
TYPE F F F F
COUNT 1 1 1 1
WIDTH 1421
HEIGHT 1
VIEWPOINT 0 0 0 1 0 0 0
POINTS 1421
DATA ascii
8.2057152 0.60447729 0.46575284 0
8.1041546 0.72103357 0.39331722 0
8.1196012 0.83460647 0.38299948 0
8.1563988 0.98909414 0.39934641 0
8.2381411 1.0343819 0.5091092 0
8.2066994 1.2477993 0.41313365 0
5.7094693 0.46493396 0.10077421 0
8.1875935 1.4430411 0.43102056 0
8.2342815 1.5221951 0.5337376 0
5.6102571 0.5746274 0.064068794 0
5.673686 0.5039221 0.093793422 0
8.0949945 1.6034982 0.42886072 0
5.4790173 0.70096529 0.062976718 0
8.0575542 1.7518121 0.44718543 0
5.2689791 0.93200481 -0.052652866 0
5.3351693 0.85614091 0.056142718 0
5.1474857 1.0566635 0.033432722 0
5.2436619 0.99533075 0.053810909 0
5.0691586 1.1969593 0.02914907 0
10.304512 -1.5384684 0.7020672 0
10.206161 -1.4258051 0.70347643 0
9.9978113 -1.2794213 0.68479049 0
7.7562838 -2.0437074 0.39567566 0
7.8419256 -2.0130653 0.39226693 0
9.7662468 -1.069061 0.62546897 0
9.8292189 -1.1291504 0.71518773 0
9.6716213 -0.93243361 0.67996055 0
9.7120762 -0.95435882 0.72961378 0
9.5506191 -0.79074979 0.68554151 0
9.3229256 -0.60015631 0.69695652 0
9.422226 -0.65845609 0.67376304 0
9.2172174 -0.51075137 0.66523087 0
8.9822264 -0.34396195 0.66511124 0
9.0552063 -0.38981855 0.67843348 0
8.646759 -0.27582479 0.56858277 0
8.8707628 -0.22139978 0.70440686 0
8.6525602 -0.13021398 0.57845169 0
8.7071705 -0.073982 0.66988766 0
8.5697298 0.075538397 0.58813161 0
8.6174431 0.081274033 0.6865719 0
8.4747276 0.25743973 0.61665374 0
8.3365707 0.42077994 0.5960722 0
8.1191797 0.60115719 0.59423065 0
8.2654419 0.55738151 0.58979356 0
8.0704603 0.69727397 0.5744037 0
8.127697 0.8282814 0.61130226 0
4.0126843 -0.76044041 -0.06339772 0
8.1743717 0.91972572 0.59525228 0
8.1128101 1.1271849 0.65806013 0
8.2209129 1.2536486 0.5767262 0
5.6934762 0.44722131 0.2815879 0
8.1478024 1.4242085 0.63866949 0
5.5651159 0.60546917 0.26944768 0
5.6332831 0.52588928 0.27858636 0
8.1018753 1.606943 0.6305995 0
8.1276131 1.7086471 0.72245288 0
5.4649649 0.70033395 0.26370442 0
8.0774508 1.7704049 0.62373495 0
8.1118708 1.8085974 0.67866921 0
5.323081 0.85618889 0.25267324 0
5.144803 1.041572 0.23256993 0
5.2342501 0.99100077 0.24903682 0
5.0760741 1.1866624 0.23760591 0
5.1125946 1.1948688 0.30603445 0
10.040992 -2.5184722 0.93075001 0
9.9988708 -2.3542495 0.93557739 0
10.093172 -2.2861588 0.9065299 0
10.320074 -2.1546159 0.92954957 0
10.053679 -2.1691208 0.96031642 0
10.2876 -2.0745115 0.95698059 0
10.466144 -1.9709616 0.99686658 0
10.540672 -1.885411 1.0166792 0
9.9800682 -1.2163279 0.85912716 0
7.7545171 -2.0465887 0.58247113 0
7.8126698 -2.0117548 0.58377558 0
9.8278656 -1.1027176 0.86036587 0
7.6379795 -1.9078687 0.60876065 0
9.637723 -0.88995671 0.87944716 0
9.7182751 -0.96986413 0.88736951 0
9.5379581 -0.79525661 0.89551187 0
9.3033752 -0.60986233 0.86889136 0
9.4033375 -0.67516291 0.83028603 0
9.1876736 -0.52183545 0.85568094 0
8.9478321 -0.31016314 0.85386789 0
9.0454769 -0.37409306 0.8405543 0
8.883873 -0.22474849 0.82525593 0
8.7440939 -0.083479404 0.81184697 0
8.6167164 0.091063499 0.8323375 0
8.4732227 0.26431608 0.80802083 0
8.319519 0.41813326 0.79903013 0
8.1316366 0.61202693 0.75883406 0
8.2098627 0.55121481 0.7953639 0
8.100626 0.66954696 0.77992272 0
8.1269369 0.79536861 0.7881794 0
8.1349926 0.97583473 0.77396309 0
8.1841106 1.0847367 0.87417626 0
8.0842066 1.1388607 0.74579293 0
8.1376705 1.2464237 0.81469136 0
5.6853867 0.43492761 0.48152253 0
8.1351242 1.4049479 0.80842549 0
8.2106428 1.4867316 0.91279769 0
5.5365028 0.6058796 0.46170369 0
5.6119218 0.53534025 0.47417474 0
8.0673914 1.5309205 0.76392311 0
8.1356106 1.6594722 0.768354 0
5.4543276 0.70195985 0.45791471 0
5.320363 0.85759014 0.45383364 0
5.1348329 1.0360336 0.4332594 0
5.2176147 0.98813337 0.44694343 0
5.0458946 1.1774265 0.43429887 0
5.1170974 1.1560764 0.45426095 0
9.9382267 -2.3683767 0.9735921 0
9.9931793 -2.2263241 0.99591285 0
10.042932 -2.1490474 1.0120215 0
10.212929 -2.0088243 1.0690191 0
10.350985 -1.9108052 1.103395 0
10.309288 -1.7814422 1.1632452 0
10.495306 -1.8073514 1.0719005 0
10.356913 -1.6497402 1.2292662 0
7.7930055 -2.1235828 0.84058011 0
7.784359 -2.1047049 0.69684184 0
7.8063574 -2.0769696 0.78613132 0
9.4761906 -0.82023215 1.0780739 0
9.3115005 -0.66284072 0.99204034 0
9.3660049 -0.68564665 1.0776123 0
9.2008772 -0.49447 1.0700378 0
9.2826443 -0.57444584 1.0699974 0
9.0570869 -0.36766636 1.0340912 0
7.6089168 -0.83500242 0.91420889 0
7.7117286 -0.77263772 0.94957459 0
7.8278685 -0.65341973 0.95786822 0
8.8881874 -0.22040713 1.0067433 0
8.9105177 -0.20834672 1.0587251 0
8.740612 -0.028912902 0.96526754 0
8.8774214 -0.076950192 1.0444562 0
8.5222635 0.16610122 1.0001978 0
8.5920525 0.092827439 1.0386674 0
8.4184875 0.25610399 1.009246 0
8.2963715 0.40740609 0.99690485 0
8.1843109 0.5556848 0.99317962 0
8.1433086 0.75285733 0.99678403 0
8.2645988 0.98486835 1.0178361 0
5.6723986 0.41362724 0.67241967 0
8.2731676 1.4968086 1.0601926 0
5.5193768 0.5990544 0.64152896 0
5.6001978 0.53173256 0.67177665 0
8.265852 1.6284094 1.0843983 0
5.4414463 0.69466555 0.65944541 0
5.5109029 0.61004168 0.7492007 0
5.3139 0.85465145 0.65497112 0
5.1321783 1.0165869 0.57793486 0
5.1803207 1.0029738 0.64806163 0
5.0385513 1.134306 0.63919091 0
5.1084585 1.130399 0.63493794 0
10.568892 -2.2467701 1.3940761 0
10.477401 -2.144793 1.3815746 0
10.587485 -2.2016375 1.4030534 0
10.231084 -1.9729941 1.227999 0
10.33766 -1.9566507 1.3224394 0
10.315802 -1.7655602 1.3271093 0
8.609621 -2.2160268 1.1159028 0
8.688056 -2.2268956 1.0570617 0
10.263859 -1.5877423 1.3602052 0
8.5288515 -2.0890479 1.1064951 0
8.6081581 -2.0312457 1.1058125 0
10.196987 -1.4190471 1.3602886 0
10.257887 -1.3912132 1.2885261 0
7.8321466 -2.1208959 1.0359449 0
7.9860873 -2.0986581 1.0676814 0
8.2826786 -2.0416346 1.1520394 0
8.4675922 -1.9092467 1.15294 0
8.5465546 -1.9345556 1.1209092 0
10.046053 -1.2833891 1.4186659 0
7.7939205 -2.1060658 0.92320997 0
8.3853226 -1.7816808 1.1707516 0
8.2950802 -1.6087699 1.1702449 0
9.4446001 -0.7667346 1.2162286 0
9.4243555 -0.67292857 1.2339988 0
7.1724567 -1.2881812 1.0055751 0
9.1610498 -0.48468125 1.1978884 0
7.0718112 -1.2092485 1.0203289 0
7.1813173 -1.1381886 1.0089089 0
7.3644061 -1.0758511 0.99563116 0
7.5664902 -0.91541457 0.97822618 0
9.0778637 -0.39066017 1.1843377 0
6.7387943 -1.1627196 1.0134104 0
6.9679828 -1.0493526 1.0360425 0
7.1386929 -0.96526551 1.0224428 0
7.2799549 -0.90824842 0.99249542 0
7.5910339 -0.83448911 0.98321056 0
7.6847105 -0.72784305 0.99106175 0
7.7801738 -0.61827207 0.99849057 0
8.8742228 -0.19312871 1.1396968 0
6.9520016 -0.90578187 1.0532603 0
7.0870028 -0.79940832 1.0396935 0
7.1905556 -0.68888438 1.0304382 0
7.7633371 -0.48451173 1.0199919 0
7.2335739 -0.58220601 1.0755209 0
7.357265 -0.47929227 1.083397 0
7.5331268 -0.33463621 1.0949641 0
7.6788578 -0.33727062 1.0405875 0
7.5491867 -0.23531473 1.1382768 0
7.609705 -0.15921557 1.1177125 0
8.2312202 0.20702899 1.1844474 0
8.3389654 0.2490617 1.1342839 0
8.2575636 0.37353599 1.19192 0
8.171711 0.57081175 1.1965394 0
8.1707335 0.76058006 1.1794376 0
8.2232342 0.85988814 1.2668854 0
8.1670847 0.90371776 1.1556904 0
8.2610464 0.98136479 1.2402799 0
5.6656761 0.39241755 0.87177062 0
8.3176537 1.5060132 1.2724099 0
8.3615532 1.5430509 1.3129374 0
5.5819612 0.5330174 0.87195146 0
8.2072239 1.7677612 1.3371735 0
8.273675 1.6929487 1.3458805 0
5.4193983 0.69897825 0.85076666 0
5.4884062 0.6298936 0.87979174 0
5.3131475 0.84648794 0.8597641 0
5.1707191 0.9929896 0.84446406 0
5.0375514 1.105531 0.83202529 0
5.0906186 1.1000767 0.8348822 0
10.492602 -2.2830598 1.4288085 0
10.417336 -2.1326258 1.4475451 0
10.361685 -1.9908655 1.4536053 0
10.184744 -1.8709939 1.5318156 0
10.253261 -1.8279846 1.4705729 0
10.062147 -1.5858839 1.5018189 0
10.145194 -1.609041 1.4657612 0
10.132254 -1.4324472 1.4749231 0
7.8114333 -2.1251061 1.1913307 0
8.0254402 -2.0432096 1.1922371 0
8.1681271 -2.0065498 1.1706939 0
8.423543 -1.9541287 1.2077751 0
7.8383474 -2.0654712 1.2658306 0
7.9618082 -1.9414592 1.2550442 0
8.1277227 -1.8303452 1.2285612 0
8.2837048 -1.76976 1.2108967 0
7.9213328 -1.8123816 1.2921214 0
8.1328135 -1.6872684 1.2844 0
8.2150497 -1.6131761 1.2354877 0
8.1439171 -1.508733 1.2493314 0
6.3878999 -1.6734693 1.1321738 0
6.5581098 -1.6611431 1.1272174 0
6.7236633 -1.5793245 1.0920258 0
6.8486805 -1.5267161 1.0497246 0
6.3137546 -1.6223316 1.1384215 0
6.4878559 -1.4820318 1.151006 0
6.6434393 -1.3910316 1.0948296 0
6.7545886 -1.2897599 1.0472947 0
6.4740133 -1.3477905 1.1670718 0
6.5845447 -1.2332978 1.1344618 0
6.7257338 -1.0975569 1.1090631 0
6.8670015 -1.0146822 1.0590265 0
6.7542715 -1.0170683 1.1750369 0
6.8703556 -0.89179158 1.1452992 0
7.0396376 -0.73393106 1.1094662 0
7.1280313 -0.66579545 1.144083 0
5.2967572 -1.2855501 0.87023795 0
5.917346 -0.98136246 1.1052762 0
5.9770384 -1.0124513 1.0872055 0
6.8520775 -0.7580092 1.1387354 0
7.2118268 -0.60055125 1.176452 0
7.3540325 -0.48853064 1.2375262 0
7.4884167 -0.34100723 1.2640625 0
5.1262217 -1.1350209 0.90431368 0
5.2040305 -1.1713347 0.87790489 0
5.8312368 -0.87695897 1.0891112 0
5.9177594 -0.93895072 1.0685701 0
7.5145822 -0.26540983 1.1718054 0
7.5989561 -0.18123245 1.2589402 0
8.2679377 0.23251724 1.3789427 0
5.0366383 -1.0019426 0.91587508 0
5.1078019 -0.99800432 0.89794374 0
5.7544937 -0.78148168 1.0981965 0
8.2415867 0.36074722 1.3878043 0
4.9244747 -0.83633494 0.93515879 0
5.0319982 -0.87144899 0.91395468 0
8.1697655 0.56900835 1.3934226 0
4.8011889 -0.67834532 0.95230341 0
8.1489906 0.76680768 1.4234936 0
8.2113781 0.83190405 1.3419584 0
4.6212358 -0.50185674 0.9744696 0
4.6926579 -0.5195899 0.96970481 0
8.0891762 0.94084322 1.462923 0
8.1665554 0.98597157 1.4005198 0
4.5509014 -0.39561409 0.98238444 0
4.6058731 -0.37235144 0.98660839 0
7.9846287 1.1434331 1.4684976 0
8.1163073 1.1128285 1.4421091 0
5.6818161 0.3734414 1.075372 0
7.7253151 1.3322363 1.4502959 0
7.8087316 1.2584983 1.4621391 0
8.2776489 1.5274838 1.3780484 0
5.5738297 0.52701819 1.0688645 0
7.4791727 1.4302063 1.3627024 0
7.5788717 1.4049389 1.4048378 0
8.2065897 1.7683793 1.3879287 0
8.2710705 1.6922891 1.3962616 0
5.3945599 0.70695442 1.0499532 0
5.4700289 0.63813925 1.0736552 0
7.4480543 1.458917 1.3568947 0
7.4601336 1.4689662 1.4487859 0
8.1520634 1.8206851 1.3794341 0
5.2931676 0.85276812 1.0602127 0
5.0284309 1.0526597 1.123456 0
5.1415958 0.99557048 1.0378844 0
5.0373549 1.0816118 0.99974179 0
5.0550971 1.087841 1.036873 0
7.7940807 -2.1444907 1.4087883 0
7.8478117 -2.059494 1.3806534 0
7.9180069 -1.9646093 1.3849802 0
7.8923616 -1.824651 1.3321811 0
6.1274381 -1.5956879 1.1466074 0
6.2612381 -1.5432744 1.1635869 0
6.3859625 -1.4870178 1.1668456 0
6.2666216 -1.4496045 1.1826638 0
6.4294839 -1.3386338 1.2602886 0
6.4965291 -1.2452357 1.2571337 0
6.6365166 -1.1037987 1.2217051 0
6.8183489 -0.83814752 1.4325161 0
5.1651468 -1.3122884 1.1394007 0
5.2567592 -1.3112383 1.1126992 0
6.846755 -0.74391866 1.4459382 0
7.3798237 -0.44201076 1.3464746 0
5.0822773 -1.1904078 1.1483135 0
5.1736531 -1.1761988 1.1082492 0
8.2899666 0.20931768 1.5899796 0
4.9844737 -1.0239389 1.1620946 0
5.0798512 -1.0303628 1.1070557 0
5.7270689 -0.78236008 1.2067423 0
8.2194328 0.3620199 1.5943285 0
4.9001279 -0.8630603 1.1670314 0
6.4708967 -0.20682967 1.4388415 0
8.1745005 0.56317246 1.5991902 0
4.7945309 -0.68369615 1.1507088 0
8.1111498 0.75752568 1.6000698 0
4.6087732 -0.49693987 1.0165181 0
4.6965084 -0.54922485 1.1410544 0
8.0263443 0.94075036 1.6087265 0
4.5209336 -0.34428939 1.0071703 0
4.5635352 -0.32231212 1.0031841 0
5.8007255 0.28359318 1.3290205 0
7.9003229 1.1037757 1.5894054 0
4.4495687 -0.19388366 1.0190454 0
4.5119519 -0.21851569 1.0174574 0
5.6977353 0.36729154 1.2844279 0
7.7006278 1.3066447 1.6029136 0
7.8099122 1.2400827 1.5819706 0
4.3843417 -0.086052775 1.0185531 0
5.5582108 0.52645624 1.2689391 0
7.6169977 1.4120038 1.5830958 0
5.3814359 0.71339089 1.2457566 0
5.4368992 0.64466113 1.2716997 0
7.4755578 1.4806638 1.5214622 0
5.283649 0.8431161 1.2564777 0
5.0233507 1.0376196 1.229557 0
5.121027 0.98582786 1.2387056 0
5.0155039 1.0549011 1.1574615 0
5.0336237 1.0623301 1.2025301 0
7.7195807 -2.1695998 1.5138013 0
7.7375116 -2.1310313 1.4946482 0
6.416204 -1.3577993 1.3933985 0
6.8325539 -0.85483205 1.5534577 0
7.8902202 -0.35818875 1.6811941 0
6.7711148 -0.70308948 1.5392492 0
7.8715048 -0.24192488 1.7311475 0
7.9346099 -0.16782463 1.7261581 0
8.0743542 -0.036408901 1.7170652 0
5.7493496 -0.82537067 1.4656281 0
6.5203013 -0.5080359 1.5443598 0
6.6534057 -0.55136108 1.5388813 0
7.6012506 -0.018205166 1.7864288 0
7.7562809 -0.05880034 1.76299 0
7.8819757 -0.025327325 1.7462354 0
8.09552 0.0091497898 1.7334361 0
5.7443199 -0.80130011 1.4035627 0
6.4363737 -0.38756895 1.5727264 0
6.5225744 -0.3574717 1.5274502 0
7.5484486 0.06491816 1.7781626 0
7.6408615 0.080293775 1.7834618 0
7.8298063 0.19663417 1.8079658 0
7.9404526 0.31042361 1.8338497 0
8.1841049 0.37453687 1.7320266 0
4.8195343 -0.83309472 1.2081813 0
6.3208718 -0.23486292 1.5705578 0
6.4717178 -0.24895203 1.5035273 0
7.5338545 0.19570589 1.7977087 0
7.8490071 0.34132218 1.8291886 0
7.9290257 0.47034132 1.8391231 0
8.1241732 0.55188882 1.7871171 0
4.7835169 -0.71453607 1.2145054 0
6.111783 -0.081414163 1.6085482 0
6.202188 -0.07860893 1.590766 0
8.116889 0.72469091 1.7392709 0
6.104959 0.081264257 1.6023995 0
5.9683948 0.24772269 1.6083488 0
6.0224385 0.19383574 1.6022645 0
7.8821173 1.1103044 1.7329364 0
5.6893735 0.37022504 1.4749827 0
7.7049541 1.2632217 1.7276304 0
7.7588549 1.2386798 1.7442644 0
5.5492997 0.51651788 1.4734828 0
7.6300335 1.4070154 1.7461555 0
5.3539972 0.73989165 1.3705547 0
5.4065742 0.66866291 1.4644499 0
5.2623568 0.84390974 1.4502118 0
5.3307071 0.77903545 1.5167452 0
4.9882216 1.0084159 1.4226108 0
5.1073561 0.97595364 1.4391549 0
4.9635668 1.0302086 1.4621446 0
6.8432789 -0.84218001 1.6730349 0
6.7285275 -0.68565035 1.7256315 0
5.7522621 -0.82377762 1.5619456 0
6.6230278 -0.5408082 1.7535932 0
7.4643183 -0.086118817 1.8047431 0
7.6608057 -0.063195109 1.8056214 0
6.4339881 -0.34569061 1.706199 0
6.4798546 -0.3903141 1.7666255 0
7.5067501 0.053973913 1.8118107 0
6.3177056 -0.23289502 1.7483425 0
7.4700747 0.24443388 1.837726 0
7.5077734 0.24639606 1.8158507 0
7.800704 0.39754367 1.8770593 0
7.8514724 0.48584747 1.8874189 0
6.0973206 -0.055036545 1.6197865 0
6.1752882 -0.088167429 1.7487538 0
7.3085537 0.3877573 1.832067 0
7.8353071 0.59013677 1.9603046 0
5.9998856 0.077999711 1.6677277 0
6.0576348 0.054212868 1.7054169 0
5.8799806 0.22483861 1.6732776 0
5.9997973 0.19649845 1.6145101 0
5.6622391 0.38163495 1.6484727 0
5.7602711 0.3384257 1.7074282 0
5.5310578 0.51225138 1.6404353 0
5.3922148 0.67027545 1.6561136 0
5.2280898 0.84320933 1.6553813 0
5.3172765 0.78073013 1.6539371 0
5.0962095 0.96619397 1.6337907 0
4.9810619 1.0751727 1.7245085 0
6.6831412 -0.66952491 1.9689996 0
6.6001077 -0.55203652 1.9473768 0
6.3912258 -0.32335603 1.9394953 0
6.4621954 -0.39114821 1.9320525 0
6.3158255 -0.23221695 1.9314823 0
6.3806834 -0.3017019 1.9987032 0
6.1736536 -0.080069423 1.9182009 0
5.9741173 0.12381321 1.9107825 0
6.0472636 0.052715659 1.9041022 0
5.8843851 0.22541422 1.8969673 0
5.7381716 0.37630206 1.8961358 0
5.5415802 0.57209414 1.8799075 0
5.6254277 0.50265479 1.9036593 0
5.4383011 0.68533474 1.8939105 0
5.2141085 0.85246652 1.7813877 0
5.299531 0.8305456 1.9052514 0
5.0646467 0.98210537 1.8419322 0
5.2037125 0.92915398 1.9183688 0
4.8776016 1.1775284 1.8048999 0
4.9383106 1.1056557 1.8280057 0
4.8078108 1.2950059 1.8480588 0
4.8761187 1.3033886 1.816871 0
4.7461185 1.4029267 1.8547534 0
4.8083425 1.4163811 1.81959 0
6.5286913 -0.71305215 2.1064029 0
6.6262674 -0.69845045 2.0836058 0
6.2382526 -0.70987332 2.1401761 0
6.4390354 -0.60548794 2.1158836 0
6.5494413 -0.57971311 2.0910866 0
6.1425409 -0.56670797 2.1598804 0
6.3385024 -0.43225354 2.1370554 0
6.4530554 -0.41484928 2.0918772 0
6.0704751 -0.32303262 2.1769466 0
6.2489443 -0.2704246 2.1391637 0
6.341917 -0.2341361 2.081701 0
6.065135 -0.22799993 2.1933806 0
6.1355829 -0.099729657 2.1358137 0
5.9457035 0.11236316 2.1775093 0
6.0187845 0.062520742 2.118356 0
5.8759947 0.22362828 2.1045287 0
5.940773 0.16485316 2.1178064 0
5.7343521 0.36772448 2.0913332 0
5.5339775 0.57711041 2.0668468 0
5.6090851 0.50034404 2.0848279 0
5.4347172 0.68817472 2.073281 0
5.2851605 0.84276277 2.0598059 0
4.7335525 0.80551934 2.0457814 0
4.8584867 0.91016918 2.0056646 0
5.0486298 0.95770472 2.0211873 0
5.1892567 0.94310355 2.0655422 0
4.8834844 1.0231963 2.0407937 0
4.9046993 1.1211891 2.0061638 0
4.7912054 1.3368356 1.955708 0
4.8264952 1.2820778 2.0370183 0
4.7292557 1.4151683 2.0371547 0
4.7649736 1.3787103 2.0535762 0
6.1499181 -0.65032035 2.1949217 0
6.0907054 -0.53451163 2.2295322 0
5.9894524 -0.38852674 2.2442575 0
5.8369365 -0.21740079 2.2520311 0
5.9698133 -0.19467741 2.226866 0
6.0591969 -0.1112355 2.2062237 0
5.6916571 -0.076676011 2.2444713 0
5.90201 0.023218215 2.2196925 0
5.5819378 0.11455894 2.2943954 0
5.7911401 0.18320322 2.2429752 0
5.386466 0.30179018 2.3004756 0
5.5308666 0.28127664 2.2897768 0
5.6866555 0.35087132 2.2458193 0
5.2958035 0.38924649 2.2970245 0
5.4695692 0.4992485 2.2923465 0
5.5827379 0.50430125 2.2506745 0
5.303802 0.53347117 2.2836561 0
5.4203911 0.65678871 2.2675855 0
5.2664576 0.82223505 2.2808762 0
4.7541656 0.76298594 2.1152821 0
5.0217285 0.94826072 2.2567129 0
5.1747136 0.93705606 2.2610252 0
4.8195276 1.1212885 2.2987967 0
4.862668 1.164093 2.2340014 0
4.7485929 1.3273973 2.2610073 0
4.8084188 1.2734008 2.2269802 0
4.7281923 1.3857057 2.166949 0
4.7553825 1.3705692 2.162672 0
5.5726876 0.1075117 2.3831 0
5.3920708 0.30948019 2.3609767 0
5.4335642 0.28145236 2.3992345 0
5.3524733 0.35009459 2.3694491 0
5.226058 0.69575888 2.3772895 0
5.1357298 0.79422784 2.3550763 0
5.2256446 0.7691943 2.3668361 0
4.8842525 0.95963287 2.3381736 0
5.0018935 0.92237681 2.3480546 0
5.1425176 0.91387665 2.3555455 0
4.7995591 1.1454011 2.3416965 0
4.7859926 1.2012174 2.3446436 0
4.7974286 1.223675 2.3379607 0
9.6806374 -1.2671525 -1.5845217 0
9.7547064 -1.3181078 -1.5487632 0
9.6275492 -1.1928802 -1.5983487 0
9.7165813 -1.1118927 -1.5478241 0
9.6891489 -0.93186569 -1.5211016 0
9.6850815 -0.82909775 -1.5145708 0
9.5792599 -0.81278849 -1.5599535 0
9.6809864 -0.78733301 -1.5175009 0
9.4843969 -0.56315088 -1.5209249 0
9.5694141 -0.59631681 -1.5064923 0
9.3491373 -0.43605208 -1.5233539 0
8.9240189 -0.3363632 -1.608687 0
9.0602465 -0.31870484 -1.5347401 0
8.8463488 -0.24702525 -1.6201791 0
8.9266539 -0.1591723 -1.5764505 0
8.8683853 -0.023197651 -1.5431113 0
8.6335068 0.129614 -1.5102407 0
8.5492191 0.21019733 -1.5222458 0
9.7109985 -1.4324789 -1.4236033 0
9.7906847 -1.3058228 -1.4109356 0
9.9201393 -1.1918175 -1.3511447 0
9.7714663 -1.1135938 -1.4487534 0
9.8426285 -1.068157 -1.3585479 0
9.6922569 -0.91272426 -1.4094912 0
9.7214165 -0.89306998 -1.3568637 0
9.5861969 -0.72832727 -1.3753006 0
9.6630764 -0.77588105 -1.437218 0
9.4760952 -0.58664799 -1.3407438 0
9.5574303 -0.57807612 -1.4364181 0
9.3263283 -0.42237163 -1.3938608 0
9.0935974 -0.25698042 -1.4313476 0
9.200757 -0.29545641 -1.3712711 0
9.0094967 -0.15033293 -1.4028777 0
8.8771191 0.013823748 -1.4042571 0
8.658515 0.12954104 -1.4792784 0
8.7563381 0.16367877 -1.3797719 0
6.7283263 -0.64706099 -1.5013425 0
6.8806572 -0.54636657 -1.5031164 0
8.5050697 0.28383422 -1.3971815 0
8.6263523 0.25991321 -1.428956 0
6.6793633 -0.59865624 -1.5002275 0
6.8104548 -0.52503848 -1.5013292 0
8.2644835 0.37534487 -1.4247243 0
8.3527422 0.39359713 -1.3441019 0
8.0154953 0.42288256 -1.460319 0
8.1289482 0.51279688 -1.3971353 0
7.7128668 0.60537982 -1.4417218 0
7.9145508 0.60554218 -1.4285684 0
8.0222244 0.65542412 -1.3610235 0
7.5811763 0.70377159 -1.4163171 0
7.759469 0.75821352 -1.3765223 0
7.6762629 0.97105169 -1.3627498 0
7.7950683 1.0191966 -1.3228816 0
7.5187635 1.0042944 -1.3874292 0
7.6208997 1.0761621 -1.3524792 0
7.7469616 1.2183144 -1.335144 0
7.491497 1.3722439 -1.3873094 0
7.6666689 1.406853 -1.3497015 0
7.7671356 1.4409516 -1.299947 0
7.4159026 1.421006 -1.3473471 0
7.5589557 1.4935333 -1.3257824 0
9.81567 -1.2045844 -1.1255502 0
9.9074469 -1.1695492 -1.2390347 0
9.7923164 -1.142405 -1.1015913 0
9.872694 -1.1068258 -1.1736655 0
9.6434402 -0.83658814 -1.2745107 0
9.7009697 -0.84469199 -1.1712258 0
9.5727177 -0.72952151 -1.227917 0
9.6237869 -0.75470281 -1.1388791 0
9.4457207 -0.58133674 -1.2231468 0
9.5258293 -0.57794809 -1.1361015 0
9.3380795 -0.43566918 -1.2006316 0
9.0827875 -0.22991705 -1.1114156 0
9.1682606 -0.29763126 -1.1947341 0
9.0170069 -0.1574254 -1.1770431 0
8.7214947 -0.054226279 -1.2140694 0
8.8403358 0.0090165138 -1.1739074 0
8.7524204 0.17231178 -1.1871142 0
6.5360975 -0.75988764 -1.5056556 0
6.6970634 -0.63098401 -1.4961295 0
8.5378208 0.32425332 -1.2534299 0
8.62397 0.29465079 -1.1837428 0
6.1588488 -0.69372565 -1.4847958 0
6.298491 -0.66996151 -1.4920777 0
6.474895 -0.62095821 -1.4868441 0
6.611578 -0.549577 -1.4818531 0
8.2596722 0.40697718 -1.2008355 0
8.3912153 0.41164422 -1.1929026 0
6.0300422 -0.59739506 -1.4714311 0
6.1999531 -0.54206187 -1.4673449 0
6.3740926 -0.45418608 -1.4630851 0
6.533823 -0.37230128 -1.4512439 0
8.190443 0.51141489 -1.2322769 0
5.7882762 -0.51131064 -1.440035 0
5.9239254 -0.47054666 -1.4460267 0
6.0941491 -0.37931383 -1.4399738 0
6.2756753 -0.28707045 -1.4325655 0
6.4301081 -0.18246317 -1.4198271 0
7.8554583 0.64540172 -1.1718569 0
8.0180683 0.66360891 -1.251287 0
5.6646957 -0.36546957 -1.4256313 0
5.8249488 -0.30158156 -1.4202242 0
6.0053568 -0.20377809 -1.4110193 0
6.1714005 -0.10254115 -1.4011869 0
6.3488684 -0.0220294 -1.3967938 0
6.4817967 0.018520474 -1.4042522 0
7.8044901 0.75263619 -1.24031 0
7.9378176 0.84929872 -1.1724176 0
5.447022 -0.25039554 -1.4093083 0
5.5591521 -0.21710348 -1.4066806 0
5.7269049 -0.1284194 -1.3936677 0
5.9034491 -0.026379347 -1.3900414 0
6.080308 0.06850481 -1.3750377 0
6.2543564 0.16261953 -1.3642426 0
6.3749595 0.20234019 -1.3551394 0
7.8630695 1.015095 -1.2340412 0
7.9761553 1.1464775 -1.1571636 0
5.352046 -0.095824182 -1.39254 0
5.4574723 -0.046575785 -1.3793113 0
5.6283469 0.048966348 -1.3636674 0
5.8045292 0.1476528 -1.3584123 0
5.9899063 0.22898692 -1.3541844 0
6.1491237 0.32961553 -1.3411458 0
6.3186421 0.35005867 -1.3476437 0
7.8127179 1.2627771 -1.2892487 0
7.9256268 1.3066032 -1.1943319 0
7.9789543 1.4200803 -1.1083741 0
5.262414 0.05218643 -1.3779955 0
5.3571119 0.077468455 -1.3665615 0
5.5530901 0.22116959 -1.343668 0
5.7124548 0.31780648 -1.3325942 0
5.8767872 0.41527224 -1.3167661 0
6.0308423 0.49699152 -1.3128368 0
6.2109556 0.56774747 -1.3142917 0
7.8310566 1.4995675 -1.1906804 0
7.9543691 1.4816594 -1.0955296 0
5.5431676 0.3491669 -1.3294787 0
5.6351709 0.43930164 -1.3173318 0
5.8312535 0.51586115 -1.3017422 0
5.9998608 0.62816203 -1.2842531 0
6.0824423 0.70085263 -1.2753004 0
7.5936685 1.5810311 -1.2711796 0
7.7149282 1.6143495 -1.1701745 0
9.8005428 -1.2487421 -1.0058095 0
9.7387743 -1.1563497 -0.98717254 0
9.7764616 -1.0508564 -0.99636805 0
9.6469193 -0.89942718 -0.95139968 0
9.7087955 -0.94028783 -1.0114386 0
9.5550022 -0.77421832 -0.95310986 0
9.6243935 -0.80486846 -1.0440905 0
9.4361534 -0.60881257 -0.97944295 0
9.2862206 -0.43981075 -0.98089099 0
9.1601734 -0.29755712 -0.98684531 0
8.9842739 -0.13713908 -1.0075612 0
9.0702734 -0.18809032 -0.96427298 0
8.8910828 0.0021338463 -0.98553085 0
8.7521105 0.16082311 -0.98967481 0
8.5972376 0.30257416 -0.99838978 0
8.4227743 0.44781327 -1.0357733 0
8.5065575 0.41339397 -0.95620918 0
8.1269531 0.5188601 -1.0900906 0
8.2694855 0.55946851 -0.99609125 0
7.9144664 0.59445953 -1.1117585 0
8.015521 0.67679238 -1.0225022 0
8.0551834 0.79791582 -0.92626667 0
7.9983439 0.85666549 -1.0776762 0
8.0451565 0.92828417 -0.99250174 0
8.0667439 1.0826468 -1.0168933 0
8.1246405 1.2068007 -0.96538097 0
5.8496747 0.27653646 -1.2942245 0
8.0058794 1.3449088 -0.98004699 0
5.2108793 0.12991324 -1.3590798 0
5.3517456 0.16784739 -1.3402435 0
5.4591026 0.22950909 -1.3328778 0
5.8392019 0.29167634 -1.2833865 0
7.8445601 1.571717 -1.0536174 0
7.9250937 1.541049 -0.97375733 0
5.1400814 0.24442559 -1.3476111 0
5.2617197 0.30129996 -1.3287028 0
5.4339757 0.39416665 -1.3107845 0
5.5997853 0.52458644 -1.2962281 0
5.7645397 0.6035248 -1.2456713 0
5.91857 0.65090644 -1.2599891 0
7.739306 1.6663949 -1.0315313 0
7.8529429 1.6989132 -0.93052042 0
5.0428381 0.40637109 -1.3433897 0
5.1619077 0.47638544 -1.3273954 0
5.3337951 0.5732528 -1.3016312 0
5.5106707 0.6621629 -1.2132825 0
5.6319032 0.69160402 -1.1400037 0
4.9447184 0.57922518 -1.3267916 0
5.0646062 0.64853507 -1.2956023 0
5.2484536 0.75000834 -1.2533187 0
5.3623023 0.79043579 -1.1727303 0
4.8563275 0.74821568 -1.2994729 0
4.962894 0.8214336 -1.2638897 0
5.14503 0.91966563 -1.2237908 0
5.2627239 0.97541839 -1.1538035 0
4.7766867 0.9216274 -1.2699128 0
4.8740053 0.99197298 -1.2372519 0
5.040062 1.081356 -1.1661928 0
5.1703863 1.0616142 -1.1194987 0
4.8133307 1.1596731 -1.1977046 0
4.9147482 1.2421374 -1.1378061 0
4.7660208 1.3187152 -1.1866603 0
4.8131742 1.3452117 -1.1403824 0
9.7011576 -1.1227622 -0.88112414 0
9.7706146 -1.0380197 -0.81294388 0
9.6353931 -0.91081285 -0.84244943 0
9.7216702 -0.96760035 -0.79107249 0
9.5149479 -0.7884953 -0.84499109 0
9.374958 -0.62140989 -0.85399622 0
9.1556482 -0.46435595 -0.76292491 0
9.2285748 -0.50038075 -0.83738744 0
9.0702734 -0.3479414 -0.76490927 0
9.1471491 -0.3802731 -0.85262418 0
8.9848385 -0.18614411 -0.77453542 0
9.0380259 -0.17630219 -0.84633863 0
8.8533525 -0.039204597 -0.78236604 0
8.6922474 0.12795043 -0.78492475 0
8.4829092 0.32149267 -0.77749896 0
8.5876102 0.26670241 -0.79054719 0
8.3433199 0.39279425 -0.76648623 0
8.1025543 0.56565237 -0.81998932 0
8.2147932 0.55121315 -0.79379463 0
8.0811195 0.70293784 -0.90399182 0
8.1152964 0.72929513 -0.80276603 0
8.0893507 0.93137479 -0.80175579 0
8.1280556 1.0322566 -0.71446252 0
8.0768242 1.0589858 -0.81025636 0
8.1299648 1.1751338 -0.76354623 0
8.0854235 1.385847 -0.774459 0
7.9698944 1.5688604 -0.77241957 0
5.6670399 0.60802102 -0.97322619 0
7.9279928 1.7207314 -0.77109146 0
7.9570341 1.7532355 -0.68242967 0
5.554996 0.6941036 -1.0300279 0
5.6091456 0.72959197 -0.9837411 0
5.3869114 0.81810617 -1.0126166 0
5.2723751 0.99021745 -1.0115103 0
5.0669317 1.1426939 -1.0235871 0
5.1702266 1.1059455 -0.99957979 0
4.964745 1.2961919 -1.0894288 0
5.0543222 1.3240752 -1.0237789 0
4.7697134 1.3624482 -1.1011233 0
4.8446217 1.3728371 -1.0819268 0
9.9776134 -1.2073138 -0.57297879 0
10.035046 -1.2422066 -0.51994979 0
9.849102 -1.0819802 -0.53787982 0
9.6695499 -1.0326197 -0.62967801 0
9.6924591 -0.94900131 -0.58392596 0
9.5054531 -0.81064463 -0.56312448 0
8.9760122 -0.75308406 -0.64392054 0
9.3880081 -0.66585231 -0.53686905 0
8.970191 -0.62860918 -0.63188499 0
9.061574 -0.53327346 -0.56415033 0
9.1672344 -0.45702839 -0.5030719 0
9.0121975 -0.3937242 -0.60384536 0
9.1356878 -0.37624645 -0.5237608 0
8.9364195 -0.22458673 -0.59894955 0
8.7900667 -0.051214695 -0.58988571 0
8.6819401 0.12512505 -0.59636819 0
8.4736862 0.31280124 -0.60184097 0
8.5620098 0.25138652 -0.60656345 0
8.3424578 0.39701617 -0.60984695 0
8.2275734 0.55113971 -0.60234964 0
8.1337461 0.73002577 -0.59866518 0
8.099287 0.9057498 -0.59806716 0
8.1455021 1.0421417 -0.55867994 0
8.1431913 1.1742942 -0.58115828 0
8.08323 1.372138 -0.56354856 0
8.0109138 1.5587449 -0.54013586 0
8.0365391 1.6108482 -0.60934526 0
5.6756649 0.59061265 -0.79260343 0
7.9642229 1.7338982 -0.56964213 0
5.4838958 0.72441292 -0.79028541 0
5.6086473 0.6947099 -0.79733586 0
5.4011359 0.82738107 -0.80553716 0
5.2827282 0.98650444 -0.80671442 0
5.065764 1.1492798 -0.82763851 0
5.1664782 1.1186604 -0.80520308 0
5.0319109 1.2462699 -0.84504199 0
5.0715075 1.2595472 -0.79302722 0
10.041233 -1.4314666 -0.35559171 0
10.115192 -1.4349146 -0.28344712 0
9.9330902 -1.2353284 -0.38347551 0
9.8952656 -1.0813253 -0.40185863 0
9.9577808 -1.1215196 -0.27426264 0
9.6960516 -0.93339658 -0.43755555 0
9.4901867 -0.79456019 -0.45050535 0
9.5822563 -0.83334041 -0.44176424 0
9.2083693 -0.70347953 -0.32917055 0
9.3508968 -0.66271448 -0.42678481 0
9.2055817 -0.62516236 -0.32914993 0
9.1847572 -0.51890326 -0.38969371 0
8.9980907 -0.32163501 -0.38305461 0
9.1119413 -0.3993206 -0.37927857 0
8.9239874 -0.21073174 -0.40269414 0
8.7957563 -0.057562351 -0.39764029 0
8.5679855 0.12858689 -0.37969628 0
8.6755295 0.1020205 -0.38322505 0
8.5138807 0.24364293 -0.46001762 0
8.5501194 0.21205652 -0.38560787 0
8.2320232 0.30659044 -0.40848261 0
8.2420578 0.37393832 -0.3922134 0
8.1911039 0.5343107 -0.39871603 0
8.122797 0.71998131 -0.39724693 0
8.1004677 0.88176966 -0.39914301 0
8.1260281 0.99439585 -0.38839886 0
8.2717228 1.1271701 -0.46180767 0
8.1515083 1.1974161 -0.33826706 0
8.2415838 1.2078397 -0.43982005 0
8.058836 1.3601964 -0.36497882 0
7.9933686 1.5575271 -0.3660396 0
7.9763231 1.632194 -0.29989937 0
5.6773038 0.57280308 -0.59348989 0
7.9335923 1.6967188 -0.38428184 0
7.9412475 1.713078 -0.34213722 0
5.485908 0.71417081 -0.60283047 0
5.6083584 0.6794107 -0.60005885 0
5.4077835 0.83213508 -0.60454547 0
5.4779229 0.80003369 -0.54080397 0
5.2893786 0.98848653 -0.60065538 0
5.070034 1.1371069 -0.6537841 0
5.1549444 1.1066208 -0.6049667 0
5.0982132 1.288401 -0.59113848 0
10.028854 -1.3520746 -0.24317467 0
10.12694 -1.397763 -0.13713598 0
9.9819994 -1.2691369 -0.2225582 0
10.006714 -1.2029779 -0.14945027 0
9.8181171 -1.0708902 -0.19774586 0
9.6446838 -0.97867203 -0.12236312 0
9.1997948 -0.76240253 -0.25158051 0
9.294075 -0.66666985 -0.15958968 0
9.1954699 -0.6274004 -0.28499135 0
9.2219753 -0.50883746 -0.19877204 0
9.0041389 -0.31564879 -0.23235738 0
9.1028357 -0.35981345 -0.2509802 0
8.7809868 -0.29246998 -0.14056596 0
8.8821468 -0.20338011 -0.22107437 0
8.5761747 -0.076940417 -0.15404642 0
8.7656527 -0.084537506 -0.23187369 0
8.5646791 0.038612723 -0.15268928 0
8.6338825 0.082861662 -0.24016842 0
8.438776 0.22662246 -0.17417702 0
8.5439701 0.20627105 -0.25472212 0
8.2712936 0.35239446 -0.20748565 0
8.2181549 0.53414977 -0.20031312 0
8.1571789 0.72943461 -0.20495883 0
8.1186314 0.87506568 -0.21341622 0
8.1301937 0.98257041 -0.17580816 0
8.1384745 1.1532422 -0.18207794 0
8.1813517 1.2513819 -0.083328366 0
8.0833254 1.3690391 -0.23838961 0
8.1204529 1.3844132 -0.13166744 0
7.9939766 1.5493526 -0.20677188 0
8.0244617 1.5665874 -0.13436806 0
5.6777158 0.55183947 -0.39468622 0
7.925807 1.6771243 -0.23314461 0
5.495182 0.70077401 -0.4080655 0
5.5996623 0.65955412 -0.39550334 0
5.4017653 0.82955199 -0.40509844 0
5.4765997 0.77979326 -0.37378523 0
5.2831779 0.98202789 -0.40180793 0
5.1515055 1.0993948 -0.40968883 0
5.1036649 1.2757221 -0.39658648 0
10.217026 -1.5237699 0.089047849 0
10.042258 -1.4395342 -0.040978014 0
10.146391 -1.3834555 0.042036355 0
10.056366 -1.1992571 0.050035417 0
9.9112263 -0.97777128 0.057423294 0
9.7206612 -0.94668174 -0.057626784 0
9.8772926 -0.92405009 0.09515959 0
9.4610291 -0.76711822 -0.070290625 0
9.5416031 -0.81140947 -0.071624875 0
9.3634443 -0.65667582 -0.031061828 0
9.2401104 -0.50226688 -0.018617004 0
9.1407242 -0.40377212 0.0057969093 0
8.7561102 -0.27113175 -0.0843575 0
8.8057432 -0.26698518 0.0039613545 0
8.6119995 -0.10799944 -0.077207625 0
8.7336807 -0.11534548 0.011416793 0
8.5421543 0.048782825 -0.056621015 0
8.6185226 0.040344715 0.030329853 0
8.4290791 0.20293236 -0.0066577196 0
8.5299292 0.16206849 0.078171849 0
8.3235607 0.35543311 -0.0067735612 0
8.066185 0.50598669 0.00054639578 0
8.1797962 0.49897134 -0.0019992888 0
8.0140839 0.60334921 -0.019786566 0
8.0881271 0.71538186 0.021557808 0
8.1330376 0.83674967 0.0085527897 0
8.1737976 0.97032499 0.015338957 0
8.1867733 1.1256354 0.015756607 0
8.2117939 1.2161751 0.039430559 0
8.1226025 1.3813649 0.042787552 0
8.0580978 1.5904942 0.046269625 0
5.6737394 0.528117 -0.19291037 0
7.9805641 1.7046556 0.027045906 0
5.50208 0.67173904 -0.22226682 0
5.5639319 0.65901303 -0.19606182 0
5.3905325 0.8298617 -0.1997233 0
5.4706244 0.76572949 -0.21322808 0
5.2720494 0.97660506 -0.20529363 0
5.1450276 1.1203531 -0.20136517 0
5.0841117 1.2410626 -0.20871244 0
10.311369 -1.6538193 0.30328879 0
10.116602 -1.6107953 0.17139742 0
10.223442 -1.5437605 0.24073699 0
10.092783 -1.392807 0.22281319 0
9.9324284 -1.2429338 0.22412916 0
9.9719419 -1.2519891 0.20650294 0
9.8150005 -1.1221132 0.25704646 0
9.9216595 -1.1180062 0.17789322 0
9.6767025 -0.95783687 0.24281934 0
9.7987251 -0.92362094 0.16550761 0
9.4807224 -0.84666753 0.28502184 0
9.5398502 -0.78308725 0.21796809 0
9.3624611 -0.66258192 0.27394089 0
9.4407921 -0.70113873 0.20722878 0
8.6544428 -0.3270452 0.22112006 0
8.8003359 -0.24705815 0.13396144 0
8.6076603 -0.1886822 0.21832854 0
8.6809998 -0.097988605 0.16939554 0
8.510767 0.051786184 0.23895305 0
8.5858822 0.059644938 0.14449373 0
8.4239616 0.2306298 0.22950289 0
8.5118542 0.19263911 0.18523492 0
8.342967 0.36391115 0.20418705 0
8.2582893 0.52636456 0.21690898 0
8.2669153 0.59510732 0.16955912 0
8.1611853 0.69959056 0.22097977 0
8.1666069 0.80681086 0.1673605 0
8.1194658 0.82234502 0.29757035 0
8.1785583 0.9688158 0.22398083 0
8.2432251 1.0929458 0.32074726 0
8.1842165 1.1202673 0.16637436 0
8.1956568 1.2073565 0.24287966 0
8.1594706 1.390178 0.24877003 0
8.1145821 1.6405612 0.19655608 0
8.1922836 1.611881 0.2797071 0
5.6760621 0.50657797 0.009852618 0
5.5038867 0.65888476 -0.099735409 0
5.5357733 0.65087008 -0.0046459585 0
5.3814745 0.82309198 -0.010866061 0
5.4543443 0.75194389 0.0003593266 0
5.26754 0.96434355 -0.0063362867 0
5.1333699 1.1212639 -0.0057323575 0
5.0558739 1.2071464 -0.062112466 0
10.37323 -1.8972442 0.45993271 0
10.348336 -1.755765 0.42075706 0
10.25737 -1.5566425 0.39117366 0
9.9621906 -1.4641144 0.48318556 0
10.095277 -1.3917565 0.37806308 0
9.9138117 -1.2563653 0.42061847 0
9.9887352 -1.2864368 0.42508891 0
9.8052807 -1.1597352 0.39356738 0
9.5441151 -0.97384882 0.35285652 0
9.5967369 -1.0027673 0.43297735 0
9.4814482 -0.87744808 0.38477921 0
9.4744911 -0.79769135 0.41886839 0
9.3392086 -0.66040659 0.40968069 0
9.416069 -0.70892167 0.34391886 0
9.2448292 -0.5654819 0.41748422 0
8.597086 -0.37036288 0.39238253 0
8.5971632 -0.22217202 0.38796329 0
8.634531 -0.10112548 0.44146129 0
8.4963551 0.0083630085 0.38913408 0
8.5726728 -0.029556274 0.44745284 0
8.4140711 0.17129564 0.40204102 0
8.3473969 0.348822 0.38192973 0
8.3624744 0.38771296 0.44729438 0
8.0517254 0.5065589 0.39453125 0
8.1757517 0.5133034 0.39902768 0
8.12043 0.66954851 0.41226831 0
8.1569328 0.80371404 0.42494276 0
8.1977701 0.92754328 0.39845192 0
8.2543106 1.0468875 0.44200727 0
8.1719685 1.1083337 0.40384704 0
8.1943436 1.2019864 0.43875197 0
8.1547155 1.3940198 0.40317953 0
8.2383242 1.4661884 0.5152626 0
4.0915442 -0.55526674 -0.045389459 0
5.7420607 0.4161005 0.19507068 0
8.1144886 1.5555248 0.46302575 0
8.1550617 1.5900905 0.38795218 0
5.6662002 0.49677056 0.20155138 0
5.5222149 0.64406943 0.19322522 0
5.3658662 0.81933534 0.1951919 0
5.4272194 0.75828874 0.1957874 0
5.2537246 0.96256149 0.19534595 0
5.1233273 1.1190183 0.18971983 0
10.438755 -1.9351227 0.69048667 0
10.334711 -1.7312164 0.70423383 0
9.9937763 -1.4466362 0.58497548 0
10.05964 -1.4833238 0.65886343 0
9.8626661 -1.268945 0.57665813 0
9.7674294 -1.1402669 0.61628026 0
9.6047487 -0.97937417 0.57104433 0
9.4624786 -0.8636241 0.59999698 0
9.4736462 -0.83199859 0.60261506 0
9.3140001 -0.70062661 0.59252799 0
9.1790581 -0.59438658 0.61723709 0
8.6621952 -0.34113836 0.53443038 0
8.8186226 -0.29409266 0.64751768 0
8.6569347 -0.24014926 0.52419561 0
8.7044573 -0.10160899 0.59342557 0
8.499752 0.075285554 0.53159451 0
8.6102419 0.044022799 0.60954183 0
8.4643574 0.12972331 0.53190041 0
8.4719219 0.20564985 0.60552335 0
8.3010292 0.39925742 0.58408868 0
8.377717 0.32356453 0.61730373 0
8.212903 0.52136981 0.59706151 0
8.1376801 0.65048587 0.58837801 0
8.2077847 0.79768085 0.62298679 0
8.232481 0.91537726 0.56118643 0
8.2825727 1.0221546 0.65179026 0
8.2370243 1.1995418 0.60791987 0
8.0549898 1.2857955 0.66736734 0
8.1342955 1.3998563 0.66855586 0
8.2093477 1.466747 0.62640405 0
5.7196922 0.39122695 0.41161487 0
8.0709009 1.5242133 0.58689868 0
8.1589413 1.5342566 0.70478499 0
5.6512742 0.48505199 0.39738175 0
5.514699 0.63556516 0.39442641 0
5.3485427 0.82816267 0.38829684 0
5.4057641 0.7556771 0.40948355 0
5.2402477 0.95069897 0.39702213 0
5.1241994 1.1108937 0.39544392 0
10.270664 -2.0480075 0.8653757 0
10.370093 -1.9497268 0.80960792 0
10.524751 -1.8059487 0.93356347 0
10.317366 -1.8230059 0.78720534 0
10.399303 -1.7007775 0.81339979 0
10.22476 -1.5471988 0.78131151 0
10.115576 -1.4564247 0.80592871 0
10.230806 -1.4027123 0.87305725 0
9.5815134 -0.94817352 0.74167514 0
9.3938828 -0.78518343 0.89236927 0
9.4556284 -0.82477999 0.75134373 0
9.3105164 -0.7125206 0.82120621 0
9.1956873 -0.55496621 0.81314325 0
8.9500294 -0.37438369 0.76892662 0
9.0050545 -0.39181018 0.82993662 0
8.8429832 -0.22930241 0.77610636 0
8.9268103 -0.26678896 0.81001729 0
8.7433481 -0.10631704 0.82007992 0
8.5966272 0.046604872 0.7927283 0
8.4861307 0.21067905 0.79948533 0
8.2693558 0.40555894 0.73998994 0
8.3708057 0.35161948 0.805866 0
8.2062912 0.51672804 0.78746098 0
8.1587601 0.62255442 0.75707269 0
8.1825752 0.74141634 0.7997508 0
8.3289261 1.0463554 0.83143568 0
8.4558754 1.0362949 0.93122661 0
8.2377834 1.1212748 0.87910545 0
8.1612339 1.4071912 0.78423297 0
8.2434254 1.4780775 0.86447895 0
5.7127442 0.36559349 0.59793329 0
5.6378293 0.47687823 0.59889746 0
5.5020418 0.62532628 0.59636021 0
5.3290105 0.83934522 0.57250738 0
5.3811455 0.76641273 0.60794359 0
5.2351618 0.93306476 0.59097224 0
5.2906308 0.90805876 0.63504106 0
5.1254101 1.0796947 0.59666055 0
10.410414 -2.0998442 1.0874286 0
10.264186 -2.052825 0.93813109 0
10.365086 -2.0087719 1.0009592 0
10.566448 -1.8578715 1.0413023 0
10.606105 -1.7590311 1.0957494 0
10.594717 -1.6713681 1.0673125 0
9.8723354 -1.0997274 1.0942481 0
9.6166792 -0.91380501 1.1124239 0
9.5121555 -0.84306788 1.0191528 0
9.3005257 -0.66357732 0.9991498 0
9.394825 -0.74210525 1.0153369 0
9.1258183 -0.53663588 1.0033634 0
9.2769852 -0.58523345 1.0104007 0
9.019681 -0.4105792 1.0000222 0
7.5960655 -0.8673414 0.9247731 0
7.7350717 -0.82591593 0.89877146 0
7.7989521 -0.77961624 0.89827639 0
8.823307 -0.19487071 1.010906 0
8.9356546 -0.26224136 1.017471 0
7.5788007 -0.84079325 0.93955666 0
7.6641703 -0.78617537 0.9440645 0
7.7706223 -0.64830089 0.95251203 0
8.7222881 -0.10794973 1.0058024 0
7.7515707 -0.49100101 0.98614538 0
7.8510356 -0.47009099 0.95894504 0
8.5736713 0.028430939 1.0102767 0
8.3798351 0.18861508 1.0726701 0
8.4547195 0.1768316 0.99261647 0
8.2857189 0.36240125 1.0188565 0
8.3533926 0.31168354 0.95569313 0
8.211256 0.4977622 0.98564148 0
8.1810722 0.58838022 1.0166546 0
8.1903906 0.6897378 1.0142202 0
8.3165798 0.83991146 1.0844135 0
8.39394 0.98684752 1.0062943 0
8.4661922 1.0386007 0.98024797 0
5.7050405 0.33896172 0.80537808 0
5.627389 0.46476525 0.79531038 0
5.4841576 0.61451006 0.79607433 0
5.3124704 0.8329531 0.76550007 0
5.3629403 0.77099574 0.79899442 0
5.2125912 0.92968565 0.79117364 0
5.2871494 0.88646364 0.81524718 0
5.1152716 1.0500419 0.79068428 0
10.538937 -2.0294757 1.238003 0
10.436361 -2.0259469 1.1529056 0
10.530405 -1.8724484 1.2099495 0
10.366976 -1.8106325 1.3198421 0
10.432051 -1.7029419 1.2434502 0
10.188177 -1.5416789 1.3122137 0
10.316202 -1.5534267 1.2361206 0
10.098444 -1.392096 1.2533717 0
10.178288 -1.4216254 1.1964107 0
9.9802313 -1.2452836 1.2394547 0
9.8709297 -1.1027787 1.2123395 0
9.6394787 -0.94162989 1.1871319 0
9.7379932 -1.0211048 1.2241079 0
9.5564327 -0.82075739 1.1721201 0
9.3007584 -0.69138169 1.1503384 0
9.3916903 -0.71690488 1.2224131 0
9.1358833 -0.58523536 1.1415591 0
8.9826126 -0.4154346 1.1292607 0
7.0570469 -1.2612704 0.99489999 0
7.1976395 -1.1743195 0.98602664 0
7.3310003 -1.0958091 0.96643215 0
6.6535568 -1.263099 1.0582082 0
6.7531924 -1.1817303 1.0554273 0
6.9071517 -1.0940856 1.0335801 0
7.1087418 -0.99587786 1.010543 0
7.2316027 -0.94068694 0.97281432 0
7.6795125 -0.69783139 1.0010408 0
7.713809 -0.62632656 0.99837619 0
8.6379547 -0.15784335 1.1056625 0
6.9119177 -0.95685756 1.0687082 0
7.0110054 -0.8618021 1.0590421 0
7.1624441 -0.75122237 1.031605 0
7.3302035 -0.60897982 1.083376 0
7.5092516 -0.49665916 1.0767895 0
7.6646357 -0.4716289 1.0171237 0
8.433651 -0.0039564371 1.1000545 0
6.7262888 -0.74681211 1.0963761 0
7.5197458 -0.403965 1.1093098 0
7.6012869 -0.2854315 1.0969846 0
7.6593847 -0.18406689 1.1964982 0
8.3425007 0.15487075 1.1645343 0
7.5759602 -0.14781427 1.1185374 0
8.2839804 0.31938457 1.1908062 0
8.2527046 0.39847779 1.264878 0
8.2039099 0.47442162 1.1573303 0
8.1974611 0.53140187 1.2273207 0
8.2084665 0.72494912 1.2135473 0
8.3257771 0.88438702 1.2266603 0
8.2399445 0.87583184 1.2510673 0
5.709034 0.31437343 0.99646521 0
5.6227264 0.45060161 0.99774742 0
5.4755478 0.59890044 0.99315107 0
5.2953773 0.83848894 0.90656877 0
5.3588667 0.76392972 0.99608791 0
5.1982274 0.92374074 0.99793267 0
5.2914314 0.86860383 0.99972284 0
5.1011748 1.0207607 0.99214733 0
10.552894 -2.0385487 1.3748345 0
10.387461 -1.9485016 1.4759781 0
10.458517 -1.9218795 1.3906941 0
10.284435 -1.7848616 1.4060577 0
10.35224 -1.6995692 1.3310537 0
10.025857 -1.7444272 1.4938433 0
10.164814 -1.6661775 1.4060314 0
10.018276 -1.4597621 1.3826466 0
9.8456717 -1.3344388 1.4052905 0
9.9390907 -1.2746625 1.3761101 0
9.7535706 -1.1398602 1.4592428 0
9.8668156 -1.1628985 1.4162539 0
6.5985408 -1.2383269 1.1365036 0
6.7112761 -1.1622699 1.128737 0
6.8360858 -1.0634364 1.1549231 0
6.5883942 -1.1789013 1.1639776 0
6.6450586 -0.97691357 1.2439427 0
6.8536749 -0.95337868 1.2026944 0
6.9271784 -0.89052093 1.1572843 0
7.2229748 -0.71461058 1.1931372 0
7.3359427 -0.62125599 1.2535716 0
7.4355879 -0.51733255 1.2568622 0
6.050221 -1.1018395 1.0800669 0
6.6053243 -0.79468727 1.1387922 0
6.6573305 -0.75359511 1.1690463 0
7.487709 -0.44580317 1.2842537 0
7.637908 -0.33108461 1.3044231 0
7.7405009 -0.20427716 1.307811 0
7.8319016 -0.10208988 1.3244712 0
8.1792736 0.053804517 1.4534684 0
8.2925301 0.16274774 1.3815874 0
5.9148827 -0.97381258 1.0826421 0
6.6566005 -0.68240178 1.146791 0
8.2638912 0.29139566 1.3994799 0
8.2422934 0.38910341 1.4107037 0
5.3983264 -0.98905253 1.1838142 0
5.784008 -0.85305464 1.1184878 0
8.2012005 0.50959396 1.3932467 0
5.2325606 -0.87706077 1.1736329 0
8.1875334 0.70682633 1.4178293 0
8.2584648 0.81682754 1.3736992 0
5.0906115 -0.71898723 1.1853542 0
8.1208401 0.91604185 1.470049 0
8.2486544 0.9053911 1.3708354 0
5.0207424 -0.65110445 1.1829641 0
7.9760075 1.0636901 1.4749546 0
7.7491188 1.258229 1.5054007 0
7.8649931 1.164551 1.4702542 0
5.7354851 0.29654825 1.2080594 0
7.6908875 1.2751689 1.489759 0
5.6146569 0.4457739 1.1987092 0
5.4716105 0.59250045 1.1991341 0
5.3532753 0.75858819 1.197262 0
5.191061 0.91082364 1.1913836 0
5.2780399 0.85403657 1.1885914 0
5.1001763 1.0019777 1.1957723 0
6.2727299 -1.2001272 1.2971363 0
6.6353955 -1.0503883 1.3204868 0
6.8309927 -0.90424478 1.4315408 0
6.8733821 -0.84083426 1.4480344 0
6.1992035 -1.1142609 1.3524233 0
6.76054 -0.77722228 1.4968433 0
6.8190923 -0.73140991 1.4803804 0
7.6025152 -0.39147365 1.411141 0
8.2742548 0.12512159 1.5794822 0
6.6726656 -0.56547976 1.5076698 0
6.7264366 -0.60378027 1.5012039 0
8.2235413 0.28964233 1.5965449 0
5.42172 -0.97099763 1.2023612 0
5.7745004 -0.85479933 1.3204553 0
6.5518427 -0.35710979 1.5138638 0
6.5917339 -0.34353948 1.4846116 0
8.1582642 0.41977322 1.6383761 0
8.1814117 0.51212192 1.5741843 0
5.2603254 -0.86661291 1.2020596 0
5.3287039 -0.88042474 1.222898 0
6.5476418 -0.29648566 1.4649087 0
8.0149403 0.69316566 1.6747329 0
8.1363602 0.68714929 1.6000022 0
5.1447105 -0.7159462 1.2235663 0
5.2202802 -0.74011314 1.2480948 0
7.9598837 0.77794766 1.6771231 0
8.0325727 0.85799623 1.5977778 0
5.0374575 -0.59904957 1.2349137 0
7.8490152 0.99905682 1.6715424 0
7.9193015 1.0138061 1.5778661 0
7.7387638 1.1704276 1.6388147 0
7.8222494 1.1706669 1.5513206 0
5.7380648 0.28938687 1.3915744 0
7.6374779 1.2448497 1.6130879 0
5.6068835 0.43819469 1.3954796 0
5.4612489 0.59082735 1.3962618 0
5.2531815 0.81649888 1.370409 0
5.3419948 0.7591933 1.398684 0
5.1811461 0.89864826 1.3900404 0
5.2616339 0.83370775 1.3750161 0
5.0901556 0.97544754 1.3961828 0
7.0923815 -1.1615355 1.6837909 0
6.9265146 -1.0151271 1.5529231 0
6.9955287 -1.0644665 1.6491256 0
6.8899231 -0.96414018 1.5183883 0
6.8960457 -0.91747892 1.6405559 0
6.2332225 -1.1302125 1.5640061 0
6.7343483 -0.74942958 1.6171263 0
6.8049927 -0.78856146 1.6370734 0
6.6224518 -0.60195875 1.5769837 0
7.5945549 -0.03062284 1.7719582 0
8.1492977 0.28574336 1.7621522 0
5.7960539 -0.88139886 1.5341502 0
6.4906859 -0.45060194 1.5601953 0
7.5085745 0.10026658 1.7893655 0
7.8915205 0.36027646 1.8428338 0
8.0525856 0.42249858 1.7718375 0
8.1185398 0.55312848 1.7045852 0
6.2845531 -0.30584741 1.5939375 0
6.3628078 -0.30031538 1.5827591 0
7.4468932 0.2506032 1.8159174 0
7.9558687 0.49817324 1.8630562 0
8.0970659 0.58940768 1.7044669 0
6.1612563 -0.15744972 1.6000091 0
6.2459297 -0.13465762 1.5781463 0
6.0477653 0.0035347939 1.6157497 0
6.1691604 -0.029728293 1.5854559 0
7.7599268 1.0199327 1.7669585 0
7.9179401 0.91915321 1.7099164 0
5.7916389 0.17385197 1.6646068 0
5.9123888 0.14639324 1.6327029 0
7.6856632 1.1352824 1.7400157 0
5.7223177 0.28543717 1.6083316 0
5.8067217 0.23492247 1.6101868 0
5.59478 0.42754862 1.6025581 0
5.4587045 0.58321297 1.6001252 0
5.3312654 0.7447902 1.6035233 0
5.1594324 0.89060152 1.5909209 0
5.2413578 0.81592959 1.5518169 0
5.0782862 0.95821345 1.5535443 0
7.095027 -1.1451719 1.7335737 0
7.0101795 -1.0409518 1.7614352 0
6.2615876 -1.1885805 1.78162 0
6.376287 -1.1280034 1.7797629 0
6.8769855 -0.90355468 1.7948292 0
6.3568149 -1.0616486 1.7667798 0
6.7374506 -0.75253558 1.8095837 0
6.8063049 -0.82914448 1.8092847 0
6.1372676 -0.80741662 1.8186252 0
6.627059 -0.61250949 1.8107717 0
5.8153453 -0.8985644 1.6937097 0
6.0109439 -0.66326123 1.8551635 0
6.065547 -0.71678913 1.8489983 0
6.4810724 -0.45368409 1.8037664 0
7.4561682 0.10739481 1.824868 0
7.8967628 0.3997401 1.8759216 0
6.3402519 -0.30150902 1.8132286 0
7.3016086 0.2881223 1.8523421 0
7.3805432 0.24644375 1.8397284 0
7.8798866 0.46289957 1.9262366 0
7.8825612 0.5461061 1.9842519 0
6.168293 -0.12236953 1.8074087 0
6.2314968 -0.19180155 1.8152493 0
7.0306816 0.30054891 1.8457686 0
7.1719923 0.39273179 1.8532851 0
7.2278605 0.47432196 1.8507216 0
6.0642204 -0.0090290308 1.8313658 0
7.0934801 0.55810821 1.8757596 0
7.1721601 0.57895911 1.8528899 0
5.9055891 0.15552747 1.8407261 0
7.0009971 0.69716841 1.9301836 0
5.7709537 0.29088712 1.8446618 0
5.5896492 0.4461621 1.8019671 0
5.6827674 0.39266133 1.8659718 0
5.4509382 0.58462858 1.7857827 0
5.2338352 0.77221292 1.7768642 0
5.3037152 0.7254864 1.7516736 0
5.1303821 0.88295907 1.7665678 0
5.2065182 0.8494612 1.8353078 0
4.9984589 1.0088075 1.8145587 0
4.916883 1.1916671 1.8222388 0
5.0122719 1.1962824 1.8013006 0
4.7864151 1.3418868 1.8309928 0
4.6877227 1.497732 1.8523613 0
4.6583414 1.6305897 1.8944503 0
6.7766213 -0.90548611 2.0784218 0
6.8409891 -0.88482511 1.9947617 0
6.6968069 -0.79723299 2.042243 0
6.7836847 -0.81962311 1.9435461 0
6.0804596 -0.84249949 2.0551176 0
6.20295 -0.7508316 2.0572467 0
6.595212 -0.62592268 2.0270433 0
6.0072746 -0.65578818 1.8669086 0
6.122942 -0.70020175 2.0572309 0
6.4752054 -0.46471214 2.0193105 0
5.8952398 -0.54327399 1.8745779 0
6.3411303 -0.31407082 2.0083325 0
5.7593517 -0.39725524 1.8980719 0
6.1486387 -0.12191474 1.9964291 0
6.2264004 -0.1926403 2.0063255 0
5.6149807 -0.24626219 1.9194258 0
6.0490904 -0.008163929 2.0049114 0
5.4260945 -0.044199288 1.9690871 0
5.4888082 -0.1112718 1.9466916 0
5.9089136 0.14495027 2.0049076 0
5.3403854 0.05490005 1.9838525 0
5.4159865 -0.0022405982 1.9771707 0
5.7675185 0.29005367 2.0033104 0
5.2270708 0.1723125 1.9960017 0
5.5789618 0.50487357 2.000277 0
5.6484461 0.42774463 2.0082045 0
5.4874063 0.58978772 2.0007203 0
5.3516083 0.73983312 2.0019641 0
4.8722973 0.79784703 2.0311518 0
5.0396256 0.87126184 1.9795835 0
5.2257013 0.87217921 2.0088365 0
