# .PCD v0.7 - Point Cloud Data file format
VERSION 0.7
FIELDS x y z intensity
SIZE 4 4 4 4
TYPE F F F F
COUNT 1 1 1 1
WIDTH 1429
HEIGHT 1
VIEWPOINT 0 0 0 1 0 0 0
POINTS 1429
DATA ascii
1.8066076 -0.077242047 5.1288218 0
1.2375505 -0.27376321 2.637841 0
1.2884327 -0.29793045 2.6599126 0
1.371502 -0.24377538 3.0019116 0
1.3356466 -0.26225615 3.0618899 0
1.8541685 -0.14646749 5.0759058 0
1.8338573 -0.14994904 5.1454492 0
1.2631441 -0.36627442 2.6402624 0
1.398314 -0.35130811 3.0032997 0
1.3557575 -0.35172719 3.0632179 0
1.8731838 -0.22106695 5.0760326 0
1.8372546 -0.2298032 5.1136189 0
1.2901607 -0.47797367 2.646065 0
1.4115973 -0.43904114 3.0056477 0
1.3674586 -0.45080128 3.0645695 0
1.8986535 -0.32054687 5.0763483 0
1.8635311 -0.32967365 5.1152968 0
1.2994022 -0.57112277 2.6281843 0
1.4359329 -0.53584683 2.9981277 0
1.3940153 -0.54007936 3.0694554 0
1.9197079 -0.42088526 5.0680475 0
1.9013301 -0.42741764 5.1396542 0
1.322651 -0.66138721 2.6278565 0
1.4537135 -0.6390155 3.0000906 0
1.4242977 -0.64484191 3.073808 0
1.9244606 -0.53363383 5.0595274 0
1.8991892 -0.50625306 5.097723 0
1.3437272 -0.764817 2.6205626 0
1.4777758 -0.73541939 2.9919236 0
1.441256 -0.75088209 3.0594013 0
1.9368734 -0.62685591 5.0562682 0
1.4007708 -0.87345511 2.6085367 0
1.5022342 -0.82758623 2.9868171 0
1.459034 -0.82594043 3.0569372 0
1.980354 -0.72037756 5.0387797 0
1.1342211 -1.010668 1.2468823 0
1.1501319 -1.0095617 1.3255246 0
1.1705278 -1.0098614 1.4313222 0
1.1830229 -1.0143989 1.5239161 0
1.1978256 -1.0198615 1.6301483 0
1.2059195 -1.0148208 1.7150705 0
1.2177621 -1.0158868 1.821636 0
1.2381091 -1.0020308 1.9297935 0
1.2450384 -0.96576643 1.9916464 0
1.5184934 -0.92318845 2.9788194 0
2.0088913 -0.81930256 5.0446396 0
1.1808805 -1.1320953 1.2482657 0
1.1953676 -1.1296573 1.3245914 0
1.1946077 -1.1366694 1.4066198 0
1.2568891 -1.1316482 1.52535 0
1.2406272 -1.115849 1.6123784 0
1.2494522 -1.1291447 1.7162733 0
1.1834229 -1.1544715 1.2548257 0
1.194311 -1.1559491 1.3250771 0
1.1965839 -1.154326 1.4090719 0
1.2565764 -1.1545995 1.5444515 0
1.2480205 -1.1577605 1.6253589 0
1.2451057 -1.1581905 1.7131041 0
1.5719965 -1.1434036 3.0073993 0
1.5399793 -1.1560173 3.0485914 0
1.5946121 -1.2132562 3.0028896 0
1.5587884 -1.2311447 3.0469091 0
1.6222067 -1.312719 2.9995463 0
1.5822465 -1.3215628 3.0458457 0
2.0751677 -1.2321792 5.0421367 0
1.4726926 -1.4556692 2.3254802 0
1.5213556 -1.433825 2.3628571 0
1.6427381 -1.4153801 2.9908323 0
1.5963223 -1.381562 3.0430181 0
2.1133153 -1.3223801 5.0518193 0
1.5132387 -1.5465481 2.3161979 0
1.6694193 -1.5094973 2.9648776 0
2.1391845 -1.4221205 5.0519257 0
1.5337503 -1.6489692 2.3132029 0
1.6605847 -1.5833629 2.9670529 0
2.1597428 -1.5207601 5.0425615 0
1.5547754 -1.7400945 2.317729 0
2.1808622 -1.6193112 5.0342174 0
1.5740817 -1.8363042 2.3050377 0
2.2014587 -1.7175211 5.0249653 0
1.6067734 -1.9340243 2.2990296 0
2.2218897 -1.8154405 5.0154271 0
1.6338104 -2.0289288 2.3036401 0
2.262378 -1.9057584 4.9931507 0
1.6574881 -2.1293869 2.2973804 0
2.3285496 -2.0127921 4.9572511 0
2.2771738 -2.0009484 4.9744263 0
1.6773558 -2.2275419 2.2958801 0
2.3084292 -2.0645761 4.9483585 0
1.6978481 -2.3236487 2.2921405 0
1.7189133 -2.4131618 2.2866247 0
1.7424791 -2.5191593 2.2883635 0
1.7668262 -2.5686209 2.271848 0
1.2115892 2.5439346 5.0093975 0
0.8049053 2.3523436 3.0266252 0
1.2346327 2.4761498 5.0220337 0
0.80369288 2.3294032 3.0453689 0
0.8463068 2.2983484 3.064085 0
1.2548794 2.3662434 5.011096 0
0.86317241 2.2047241 3.0673542 0
1.2679667 2.2807682 4.9976335 0
0.90546167 2.0659578 3.0355887 0
0.86753601 2.103049 3.0523131 0
1.2821946 2.1980965 4.9873791 0
0.89541626 2.0020595 3.0560641 0
1.3019156 2.1250174 4.991262 0
1.3167233 2.0789666 4.9979959 0
0.92288071 1.8986317 3.0540876 0
1.3357477 2.0047715 4.9999747 0
0.97215044 1.7947291 3.0253887 0
0.93943876 1.822499 3.0448935 0
1.3818367 1.9054694 5.0048637 0
0.97118676 1.7199159 3.0161314 0
0.93140894 1.7440829 3.0576651 0
1.4211888 1.8281329 5.0244794 0
0.82642913 1.5347279 2.1188529 0
0.95947582 1.6150606 3.0204613 0
1.4112173 1.7076304 5.0058455 0
0.84356415 1.5141262 2.1412661 0
0.84726328 1.4827895 2.2041073 0
0.82925355 1.438363 2.2983108 0
1.4358127 1.6080582 5.0062962 0
0.87426931 1.3947604 2.2085645 0
0.84345591 1.3818927 2.3028471 0
1.4644235 1.5134873 5.0161304 0
0.90720558 1.2975874 2.1337681 0
0.89524162 1.2894865 2.2068841 0
0.86226952 1.2891483 2.288209 0
1.4926358 1.4181043 5.024766 0
0.93471527 1.1979507 2.1444654 0
0.92712474 1.200104 2.20805 0
0.89035439 1.1928885 2.2827129 0
1.5202874 1.321808 5.0318685 0
0.85061646 1.1081791 1.7895969 0
0.90441167 1.1057193 1.9364461 0
0.96127665 1.0525974 2.1450918 0
0.94735348 1.0973051 2.2016411 0
0.91146457 1.0946236 2.2849984 0
1.5450168 1.2223014 5.0321388 0
0.96801275 1.0272467 2.1280677 0
0.97426462 0.9966054 2.2006302 0
0.9404496 1.0028834 2.280582 0
1.5762799 1.129087 5.0469451 0
1.0000925 0.90404093 2.1193178 0
0.9856534 0.90243518 2.1965771 0
0.95603591 0.89350414 2.2734277 0
1.6054853 1.0640414 5.0705829 0
1.6265905 1.0216148 5.0896854 0
1.0209732 0.80041772 2.1160669 0
1.0061243 0.80742526 2.2022302 0
0.97471237 0.79575622 2.2716243 0
1.6541657 0.95365918 5.1089711 0
1.0405552 0.71054429 2.1140478 0
1.0297918 0.70930386 2.2014565 0
0.99978268 0.69833559 2.2743289 0
1.7089416 0.86314297 5.113831 0
1.0659759 0.60699314 2.1104155 0
1.0515077 0.61052072 2.2033844 0
1.0224665 0.60619396 2.2735929 0
1.7431681 0.7687484 5.1329098 0
1.0855483 0.51282048 2.092459 0
1.0673263 0.50921577 2.2085829 0
1.0375843 0.52155048 2.2595727 0
1.753975 0.66807109 5.1604466 0
1.1045308 0.41857496 2.0933492 0
1.0872345 0.41384882 2.1997056 0
1.0680001 0.39612922 2.2616127 0
1.1714711 0.38659108 2.6060858 0
1.7957538 0.57658803 5.1944685 0
1.1295797 0.31320965 2.0284419 0
1.1280136 0.32007271 2.093256 0
1.1136239 0.31831297 2.2016985 0
1.0983254 0.30493462 2.2824647 0
1.2508677 0.38965392 2.6210954 0
1.2266059 0.35694018 2.684299 0
1.2675277 0.29849726 2.9421973 0
1.7686067 0.41533297 5.0723648 0
1.7925818 0.48668826 5.1480031 0
1.1543435 0.23195922 2.1072857 0
1.1440573 0.22957581 2.1866016 0
1.1277977 0.25548315 2.2591588 0
1.2810456 0.25641608 2.946172 0
1.8059521 0.34367859 5.0545845 0
1.1746037 0.16323103 2.1284335 0
1.1610372 0.153588 2.1541421 0
1.8241644 0.25206983 5.0632629 0
1.8681386 0.22857051 5.0615077 0
1.3543407 0.014036566 2.962563 0
1.8354325 0.14022096 5.0677934 0
1.8867935 0.15370005 5.0610542 0
1.3601952 -0.069654629 2.89904 0
1.3646362 -0.046469793 2.9564626 0
1.8814061 0.045449525 5.0548067 0
1.3880115 -0.10572399 2.9220059 0
1.3854332 -0.13464928 2.9546781 0
1.9113367 -0.044112265 5.050343 0
1.9115262 -0.11459255 5.0535049 0
1.945029 -0.20300573 5.05584 0
1.9435821 -0.30917203 5.0572395 0
1.9981927 -0.29556686 5.0564561 0
1.9899316 -0.40310752 5.0450149 0
2.0101154 -0.50323701 5.0354114 0
2.036612 -0.60231686 5.0374575 0
1.5004246 -0.86578768 2.5754445 0
2.0593753 -0.70176733 5.0325899 0
1.5617992 -0.93761134 2.9152019 0
2.0805054 -0.8011899 5.0249043 0
1.2720308 -1.1212136 1.5468208 0
1.3528936 -1.1069934 1.7110585 0
2.0996985 -0.87557769 5.0250697 0
1.2712879 -1.1413208 1.5329721 0
1.3925726 -1.1134061 1.6905636 0
1.6489834 -1.1364027 2.9425697 0
1.6742494 -1.199281 2.9572461 0
1.7143314 -1.2953755 2.9556222 0
2.1688266 -1.2056531 5.0486445 0
2.2343562 -1.1954343 5.0654087 0
1.5766913 -1.4408957 2.3053737 0
1.6035011 -1.4183786 2.3717639 0
1.7316034 -1.3863059 2.9390874 0
2.1918974 -1.3052258 5.043776 0
2.2489295 -1.2944043 5.0458832 0
1.6005819 -1.5122721 2.3113217 0
1.6645848 -1.5466481 2.3150189 0
1.7514625 -1.4880025 2.91995 0
2.2167444 -1.4049948 5.0419302 0
2.2753654 -1.3947594 5.0465479 0
1.6295292 -1.6168356 2.3092046 0
2.263133 -1.4981812 5.0291643 0
1.6614823 -1.7100189 2.3048398 0
2.2838774 -1.5969659 5.0202599 0
1.6769412 -1.81069 2.3033018 0
2.3105843 -1.6971998 5.0211544 0
1.7016006 -1.8982884 2.2928951 0
2.3326807 -1.796158 5.0144129 0
1.7267112 -1.9999657 2.2988374 0
2.3489356 -1.8929619 4.9981213 0
1.7480856 -2.1038816 2.2881639 0
2.3758388 -2.000762 4.9440818 0
2.3543777 -1.9627988 4.9751482 0
1.7755742 -2.1973162 2.2797482 0
2.3702941 -2.0430307 4.9146194 0
1.7936828 -2.297641 2.2821302 0
1.8143446 -2.3995523 2.2873974 0
1.849889 -2.4896092 2.2883046 0
1.8770769 -2.5672319 2.2877486 0
0.88437259 2.3828702 3.0121794 0
0.94377673 2.375937 3.012136 0
0.9231382 2.3351107 3.0430355 0
0.95725727 2.2360363 3.0460641 0
0.97451538 2.0991297 3.0173292 0
0.95583874 2.1359918 3.027478 0
0.96499836 2.0117598 3.0241723 0
0.98188382 2.0272624 3.0250924 0
1.0095043 1.9308598 2.9951861 0
0.97220963 1.9324721 3.0376508 0
1.009223 1.8391149 2.9993243 0
0.86065817 1.5472862 2.1103895 0
0.87337232 1.4864315 2.1144128 0
0.87290943 1.4648736 2.156261 0
0.90864372 1.4007298 2.1147377 0
0.85779274 1.2366694 1.7622224 0
0.9134444 1.2895917 2.1191034 0
0.89550537 1.1454993 1.6299303 0
0.88951302 1.179323 1.7059786 0
0.8813132 1.1958308 1.7662497 0
0.94752669 1.197894 2.1014795 0
0.94188106 1.1926814 2.1506338 0
0.88020772 1.0504996 1.5300887 0
0.90215039 1.0839677 1.6026006 0
0.91198635 1.0969664 1.6900898 0
0.908566 1.0958482 1.7824718 0
0.93935919 1.0939059 1.9009922 0
0.95306122 1.0928127 2.0058465 0
0.965855 1.1087228 2.1086519 0
0.89506876 0.99607819 1.5278598 0
0.91880214 0.99141943 1.5919584 0
0.93677092 1.0012189 1.6925652 0
0.94920307 0.99912006 1.795784 0
0.95688879 0.99895662 1.8887036 0
0.96900761 0.99923313 1.9904153 0
0.97883862 1.0030756 2.089922 0
0.92281574 0.90249896 1.524487 0
0.94454455 0.89995587 1.5977426 0
0.96197963 0.89641941 1.6908683 0
0.97152674 0.90084666 1.7912505 0
0.98085976 0.9028787 1.8919395 0
0.99008775 0.90697014 1.9963927 0
1.0023863 0.89902461 2.0736411 0
0.94800663 0.79655987 1.5192919 0
0.96929759 0.80932367 1.5903747 0
0.9861064 0.80725908 1.6950619 0
0.98990417 0.80583608 1.78916 0
1.0029179 0.80811101 1.8886516 0
1.0166849 0.80698717 1.9849876 0
1.0214472 0.81302869 2.0681784 0
0.96586013 0.68153214 1.5176858 0
0.9790647 0.69892305 1.595805 0
1.0027074 0.70231843 1.6882925 0
1.0141096 0.71152717 1.7894793 0
1.0221773 0.70372796 1.8935611 0
1.0386219 0.71358848 1.9967457 0
1.0474744 0.71377474 2.0674615 0
0.92629802 0.57113868 1.2102457 0
1.0039785 0.60371608 1.5189766 0
1.0114088 0.609173 1.5907534 0
1.0312359 0.60591793 1.6925037 0
1.0383503 0.61759824 1.7915988 0
1.0479412 0.60488528 1.8930464 0
1.0589435 0.61652118 1.9962624 0
1.0646127 0.62447631 2.0637636 0
0.95307529 0.4913038 1.213088 0
1.0248663 0.51156163 1.515758 0
1.0370805 0.5072493 1.5879543 0
1.0558809 0.5109396 1.691288 0
1.0604308 0.51595622 1.7883466 0
1.0670789 0.51187193 1.8846788 0
1.0779563 0.51674515 1.9867446 0
1.0771319 0.55768436 2.0539103 0
0.99963963 0.40105212 1.2145038 0
1.0477508 0.41338849 1.514202 0
1.0590487 0.41164574 1.5884852 0
1.0797871 0.41313368 1.6921816 0
1.0841027 0.41696352 1.791253 0
1.0891259 0.42098215 1.8872106 0
1.1011432 0.41490492 1.9899013 0
1.1076314 0.43050784 2.0570555 0
1.0174725 0.29956156 1.2015485 0
1.0767412 0.31081986 1.5089141 0
1.0849128 0.31572804 1.5868191 0
1.1019032 0.31850356 1.680998 0
1.1085867 0.31922925 1.7843372 0
1.1154644 0.31893468 1.887904 0
1.1247461 0.32069129 1.9872252 0
1.2892532 0.39962053 2.6103771 0
1.3230875 0.36615998 2.6568573 0
1.0412788 0.22920805 1.2037944 0
1.1016566 0.21716641 1.5056059 0
1.1123849 0.21760696 1.5860566 0
1.1358154 0.22460446 1.6851486 0
1.1434493 0.22393745 1.784341 0
1.1531738 0.22478455 1.8901354 0
1.1587675 0.22621846 1.985679 0
1.1750304 0.21153121 2.0652418 0
1.1318482 0.13443032 1.5265765 0
1.1272328 0.13549459 1.5598313 0
1.1694018 0.17711821 1.6725254 0
1.1890366 0.17309767 1.7756026 0
1.1875888 0.1736874 1.8526937 0
1.1877265 0.17521104 1.9675605 0
1.2329749 0.16830784 2.082706 0
1.9153671 0.26806372 5.058672 0
1.1446536 0.012417927 1.5305128 0
1.1379945 0.028235026 1.5424452 0
1.9457215 0.17038073 5.0684891 0
1.154315 -0.083479658 1.5293052 0
1.9662818 0.068423122 5.0594482 0
1.1849747 -0.17644607 1.5263313 0
1.1900797 -0.20907834 1.5420194 0
1.9968884 -0.02974312 5.0693254 0
1.2074628 -0.25740519 1.5263009 0
1.198194 -0.25877905 1.539547 0
2.0139823 -0.10543957 5.06566 0
2.0284216 -0.18176317 5.0570884 0
2.0642109 -0.27934921 5.0759611 0
2.0867043 -0.38018262 5.0703864 0
2.100487 -0.48228738 5.0491433 0
2.1282718 -0.58199561 5.0530319 0
1.5840449 -0.85662806 2.5664637 0
1.6451447 -0.84684825 2.5798481 0
1.410401 -1.0948806 1.6698849 0
1.419282 -1.1043611 1.6738526 0
1.7528995 -1.1685247 2.9379306 0
1.7932698 -1.2749585 2.9423788 0
2.2984779 -1.2094796 5.0675921 0
1.6463737 -1.4303967 2.3002195 0
1.6980562 -1.4135269 2.3284564 0
1.8373154 -1.3668909 2.9478178 0
2.311182 -1.2842572 5.0560222 0
1.7090918 -1.5032209 2.3001783 0
1.7114859 -1.5006815 2.303256 0
1.8327262 -1.4729028 2.9110434 0
2.336236 -1.4087994 5.0433645 0
1.7083998 -1.6135918 2.3068216 0
1.737956 -1.5922027 2.3029547 0
2.3458338 -1.505915 5.0162382 0
2.3416481 -1.4575995 5.0307622 0
1.745047 -1.7059997 2.2967291 0
1.7697052 -1.6743594 2.2981551 0
1.7710679 -1.7859983 2.2862043 0
1.8229512 -1.8241379 2.2911551 0
1.7817088 -1.8968998 2.2911851 0
1.8314066 -1.8815339 2.2939453 0
1.8202164 -1.9905918 2.2862008 0
1.8572371 -1.9363948 2.2889001 0
2.4324393 -1.8328319 5.01791 0
1.836539 -2.080054 2.2697043 0
2.4460704 -1.9291004 4.9976892 0
1.866528 -2.1772921 2.2638507 0
1.8941214 -2.2736926 2.2813668 0
1.94513 -2.2894599 2.2895858 0
1.9165895 -2.38116 2.2821879 0
1.9576726 -2.3288822 2.2881942 0
1.944401 -2.4483652 2.2798264 0
1.945183 -2.4999113 2.298377 0
1.92386 -2.5708499 2.3015463 0
1.9859033 -2.5599523 2.3044076 0
2.0333979 -2.6010861 2.2989056 0
0.98151201 2.3311291 3.0501068 0
1.015094 2.2467179 3.0226376 0
1.0139415 2.1716485 3.0033033 0
0.98407221 0.56068832 1.2115713 0
1.0004722 0.49972805 1.1973952 0
1.0283769 0.40860325 1.1827691 0
1.0717757 0.28302923 1.1273403 0
1.0482835 0.31248224 1.1651403 0
1.4201809 0.36989051 2.6340482 0
1.0836576 0.23411921 1.120988 0
1.0901964 0.22553071 1.1779028 0
1.1468889 0.20094149 1.225554 0
1.4738137 0.30149657 2.6317198 0
1.1671677 0.16777542 1.5129412 0
1.1821319 0.15740642 1.5343574 0
1.2140436 0.1727889 1.6842656 0
1.2430525 0.17386147 1.7633445 0
1.3267177 0.19034408 1.9896123 0
1.3255024 0.1755871 2.0505028 0
1.4946709 0.19809508 2.6300569 0
1.5175791 0.10396193 2.6299102 0
1.5318642 0.040048629 2.6225266 0
1.5799714 -0.12694219 2.6288123 0
1.5955144 -0.19289602 2.6411474 0
1.6245743 -0.28127444 2.6400061 0
1.6093035 -0.24073605 2.6890182 0
1.6469755 -0.34725922 2.6632001 0
1.6038413 -0.93777716 1.9686877 0
1.6926886 -0.83718228 2.5784097 0
1.7314616 -0.83052534 2.5842063 0
1.6284287 -0.95388615 1.9344287 0
1.7774858 -1.3995748 2.3026145 0
1.8023007 -1.4647611 2.2958102 0
1.9455354 -1.4615978 2.9460895 0
1.9904833 -1.4542465 2.9663746 0
1.8253257 -1.5704859 2.2889144 0
1.824603 -1.715927 2.2792139 0
1.851512 -1.659212 2.285955 0
1.8589702 -1.7806331 2.2709284 0
1.8948158 -1.7375187 2.2816923 0
1.9063828 -1.8256466 2.2684579 0
1.9047067 -1.8743864 2.2749865 0
1.9152029 -1.961571 2.2704892 0
1.9318255 -1.9162794 2.2716405 0
1.9411702 -2.0469048 2.2581584 0
1.9505763 -2.1490767 2.2710814 0
1.9979949 -2.1485958 2.27143 0
1.9976624 -2.2546322 2.2652576 0
2.0009899 -2.2398865 2.2745352 0
2.0326233 -2.2943749 2.2581177 0
2.0134423 -2.3448796 2.2783129 0
2.0052102 -2.4126287 2.2720687 0
2.0585942 -2.4425225 2.280005 0
2.0731134 -2.5474222 2.2966366 0
2.0868015 -2.5933521 2.2862566 0
1.1677729 0.22998147 1.1718479 0
1.2313656 0.23674202 1.2357297 0
1.5314519 0.33534995 2.632457 0
1.6010714 0.31429917 2.6743631 0
1.4043083 0.20966738 1.9608258 0
1.4104608 0.1923497 2.0205181 0
1.5044761 0.08581803 2.0263994 0
1.3466681 -0.16433127 1.2309334 0
1.3450984 -0.23478499 1.2245506 0
1.6542056 -0.20200248 2.6365845 0
1.3620352 -0.33592907 1.2168738 0
1.5977182 -0.28877985 2.0272322 0
1.7044406 -0.26472643 2.6380122 0
1.7168087 -0.3354035 2.6361496 0
1.7053485 -0.81151861 1.9889812 0
1.795191 -0.79058886 2.5882189 0
1.6798534 -0.90265262 1.9493605 0
1.691993 -0.86484426 2.0024135 0
1.7352315 -0.86241174 2.0961883 0
1.7668295 -0.86991507 2.1573541 0
1.8413024 -0.84294415 2.5210047 0
1.8140519 -0.84550917 2.5842617 0
1.849134 -0.880009 2.6694863 0
1.6568465 -0.95667052 1.9213448 0
1.8554962 -0.89778656 2.4846866 0
1.8564181 -1.3597783 1.9852936 0
1.9154296 -1.3389264 2.2445455 0
1.8758658 -1.3688552 2.2725024 0
1.8674887 -1.449872 1.9860533 0
1.9383383 -1.4569662 2.2325909 0
1.8954699 -1.4405055 2.2722113 0
2.0039463 -1.4592803 2.8126187 0
2.0229673 -1.4625806 2.9137986 0
1.8846078 -1.5386589 1.9602523 0
1.9426796 -1.4917754 2.1989412 0
1.927248 -1.5383683 2.2792253 0
2.0156629 -1.4822081 2.8789406 0
1.9458084 -1.6407495 2.2751532 0
1.9689598 -1.7384801 2.2758782 0
1.9885836 -1.8337804 2.2566087 0
2.0341451 -1.9252661 2.2391098 0
1.9885433 -1.9464691 2.2587523 0
2.0130534 -2.0621908 1.9390514 0
2.0222332 -2.0416126 1.9878132 0
2.0473115 -2.0324447 2.2283783 0
1.9988846 -2.0038497 2.2594137 0
2.013032 -2.0998573 1.9355179 0
2.0514832 -2.0860758 2.0328083 0
2.0791483 -2.0932136 2.137532 0
2.068624 -2.0962725 2.2133694 0
2.0633333 -2.1460879 2.2566926 0
2.0967367 -2.2237127 2.2645247 0
2.1287355 -2.3214917 2.2649589 0
2.1717265 -2.4465613 2.2373302 0
2.1351933 -2.4203928 2.2645495 0
2.158592 -2.5087068 2.2242205 0
2.1283598 -2.5240395 2.267616 0
2.1275551 -2.5774295 2.2639499 0
1.3263088 0.27082568 1.2552383 0
1.6023916 0.33815819 2.6460056 0
1.6222806 0.30629495 2.6753829 0
1.5555837 0.19501424 1.99552 0
1.5383599 0.11456825 1.9984441 0
1.5325755 0.024775572 2.0133467 0
1.3626622 -0.14153418 1.2121483 0
1.5705677 -0.079253003 2.0228903 0
1.5897721 -0.18096176 1.672435 0
1.5962657 -0.19023971 2.0099852 0
1.6421411 -0.24682015 1.8210003 0
1.6552974 -0.24438998 1.888245 0
1.6425586 -0.26277542 1.9959527 0
1.6951828 -0.24745119 2.1832664 0
1.7148728 -0.24375945 2.2840273 0
1.7444382 -0.25056395 2.4070241 0
1.7424929 -0.25386828 2.4914775 0
1.7676651 -0.26927191 2.580456 0
1.6358144 -0.35708165 2.019031 0
1.7979877 -0.31874681 2.6018517 0
1.6634481 -0.47656468 2.0159085 0
1.6794256 -0.57388353 2.008101 0
1.7057719 -0.66951698 2.0077662 0
1.723767 -0.77001899 1.9941114 0
1.7655118 -0.85832793 1.7120163 0
1.7728548 -0.86297596 1.7953101 0
1.7796621 -0.86265439 1.9083278 0
1.7508775 -0.84780067 1.9572951 0
1.8047071 -0.85776848 2.2080173 0
1.8231611 -0.87433541 2.2831662 0
1.8590724 -0.8550263 2.3955629 0
1.8584645 -0.82259357 2.4745986 0
1.8619738 -0.89152598 2.4604433 0
1.8622026 -1.3562851 1.9785028 0
1.984921 -1.3671851 2.221576 0
1.9506202 -1.3584067 2.240479 0
1.8773348 -1.4663501 1.5868466 0
1.8983094 -1.4659759 1.693729 0
1.9006717 -1.4630775 1.78782 0
1.913962 -1.4643251 1.9034535 0
1.8982669 -1.4370534 1.9699751 0
1.9482009 -1.455767 2.1099524 0
1.9659891 -1.4276946 2.190377 0
1.9313822 -1.387578 2.2451417 0
1.8844674 -1.498769 1.5875802 0
1.8894792 -1.4995692 1.6885362 0
1.9079833 -1.5008659 1.8044412 0
1.9109019 -1.4949501 1.897468 0
1.9090492 -1.5145475 1.9528112 0
1.9556484 -1.5024257 2.1887484 0
2.009393 -1.5585607 2.2703114 0
2.0608854 -1.5713266 2.1765447 0
2.0426664 -1.6186994 2.2499301 0
2.0639093 -1.7161821 2.2551649 0
2.0904236 -1.8114511 2.2443509 0
2.1195464 -1.9161267 2.1984634 0
2.0952196 -1.8791416 2.2310123 0
2.0501797 -2.0557799 1.9064226 0
2.0287268 -2.0115941 1.9586711 0
2.0861409 -2.0443394 2.0956666 0
2.107439 -1.9990767 2.1682844 0
2.0777578 -2.0924826 1.7902135 0
2.0524592 -2.0897272 1.8788447 0
2.0838714 -2.1008403 2.091615 0
2.1259422 -2.1532805 2.2480683 0
2.1960692 -2.207973 2.1992598 0
2.1752393 -2.2175109 2.2496967 0
2.1992819 -2.3000481 2.1118858 0
2.234489 -2.2896731 2.1745811 0
2.2144165 -2.299896 2.2413714 0
2.2081213 -2.4182575 2.1081889 0
2.2417307 -2.3909636 2.1706595 0
2.2250638 -2.4007335 2.2370799 0
2.2207019 -2.4792416 2.1850741 0
1.3833159 0.28540778 1.2617434 0
1.429749 0.29571745 1.2837247 0
1.594628 0.22532922 1.9707592 0
1.5838356 0.16074872 1.981761 0
1.6243337 -0.20103857 1.7046318 0
1.6578964 -0.25139934 1.7090676 0
1.6550152 -0.25588822 1.7607392 0
1.6778197 -0.27037293 1.9198661 0
1.6868105 -0.2671321 1.9590843 0
1.7329837 -0.30129826 1.7197325 0
1.7466476 -0.33900297 1.7406019 0
1.8867177 -0.30417725 2.5846357 0
1.7757549 -0.4468722 1.7365696 0
2.0176544 -0.42499951 3.0795786 0
1.7955505 -0.52587169 1.7356025 0
2.0638568 -0.47087187 3.0859904 0
2.0775261 -0.50362068 3.1127856 0
1.8170846 -0.64724356 1.7114557 0
1.8104029 -0.63081408 1.7293003 0
2.0768707 -0.59198225 3.0879407 0
2.1133139 -0.56050366 3.1022332 0
1.815056 -0.751167 1.698501 0
1.8171961 -0.68954021 1.7228246 0
2.0505836 -0.73634809 2.5674903 0
2.1182053 -0.71866381 2.9372973 0
2.1215088 -0.66814816 3.0562613 0
2.1454134 -0.65714157 3.0972126 0
1.7664835 -0.85348397 1.629732 0
1.7703607 -0.85985345 1.6626601 0
2.0118754 -0.76828164 2.5427129 0
1.8218884 -0.93745738 1.6797011 0
2.0299916 -1.356474 2.1943979 0
2.4007292 -1.2665703 3.4571581 0
2.3986087 -1.2314295 3.4655392 0
2.0241277 -1.3780411 2.1844082 0
2.3421049 -1.3736165 3.1251357 0
2.3633561 -1.3586375 3.1962988 0
2.4004316 -1.3756106 3.3242826 0
2.3986354 -1.340427 3.4196091 0
2.3241203 -1.4173018 3.0939639 0
2.3991232 -1.4272131 3.2597065 0
2.3980157 -1.4406025 3.321413 0
2.4007206 -1.4106452 3.3961415 0
2.0894094 -1.6180596 2.1836145 0
2.096921 -1.6440688 2.2271075 0
2.1193044 -1.6940702 2.1911294 0
2.11867 -1.7072175 2.2271638 0
2.1555843 -1.7926054 2.200294 0
2.1424661 -1.7938893 2.2219827 0
2.151576 -1.8705343 2.1858892 0
2.0751848 -2.0637033 1.5977176 0
2.105504 -2.0896664 1.6796951 0
2.1095104 -2.0973504 1.7402478 0
1.9515338 0.4153024 2.9288356 0
1.9523594 0.33573383 2.9146409 0
1.97869 0.33661461 3.0049286 0
2.0504165 0.10548878 3.0187337 0
2.0496745 0.019251049 2.9973695 0
2.0334342 -0.055015072 2.9444017 0
1.7543849 -0.34710842 1.7250286 0
1.777107 -0.42166525 1.7301365 0
2.1993661 -0.36728764 3.1278546 0
1.8031845 -0.53984922 1.7219511 0
2.2006886 -0.46385658 3.1113548 0
1.8113738 -0.58857638 1.7183915 0
2.2155347 -0.54731017 3.1092274 0
2.0928836 -0.72884929 2.5729079 0
2.1492651 -0.68591356 2.6195416 0
2.1641283 -0.65958798 2.6998525 0
2.2251248 -0.66627276 2.954066 0
2.2007437 -0.65870166 3.0011547 0
2.2152154 -0.62671411 3.0865428 0
2.1198456 -0.76104558 2.5400746 0
2.1370425 -0.72117692 2.5794663 0
2.3813353 -1.2616817 3.17535 0
2.4624238 -1.2484008 3.4289083 0
2.4340117 -1.2228484 3.4560521 0
2.1838932 -1.3830335 2.1436477 0
2.3695884 -1.3621542 2.8105731 0
2.3833222 -1.3678958 2.8782284 0
2.4212399 -1.3319223 3.0336936 0
2.3912432 -1.3278065 3.1173475 0
2.3840599 -1.2968512 3.2359314 0
2.4017422 -1.3322155 3.3027651 0
2.4338212 -1.2955807 3.3940709 0
2.2084873 -1.4304361 2.1321032 0
2.3613234 -1.3934637 2.8510151 0
2.4057014 -1.3840137 2.9336379 0
2.4348288 -1.4115782 3.0245597 0
2.4082851 -1.4312713 3.0825944 0
2.4031563 -1.4279554 3.2637594 0
2.2643511 -1.6855849 2.1507599 0
2.3197026 -1.8495816 2.1462011 0
2.3395367 -1.9709711 2.1444163 0
2.3573015 -1.9446456 2.1747077 0
2.3217456 -2.0431571 2.1188638 0
2.3896503 -2.1279581 2.1250107 0
1.9645909 0.37383312 2.5427136 0
1.9634495 0.40425462 2.6045473 0
1.9819467 0.41381103 2.7111554 0
1.9814389 0.41903099 2.8168535 0
1.9799895 0.39807415 2.8958061 0
1.9682925 0.3538543 2.5114212 0
2.006814 0.32585213 2.6149445 0
2.0155911 0.32929689 2.7054515 0
2.0178051 0.33139926 2.8051035 0
2.0123854 0.32301676 2.8893113 0
2.0372016 0.29446065 3.0008302 0
2.0039687 0.21646555 2.4985499 0
2.0292478 0.22407849 2.5974936 0
2.0396357 0.23214827 2.7089765 0
2.0482996 0.22365165 2.8057132 0
2.0513673 0.24658281 2.9017291 0
2.0542731 0.22446984 3.0105755 0
2.0259998 0.12866917 2.511373 0
2.0493376 0.13317914 2.6138663 0
2.0564647 0.12876838 2.6953647 0
2.0607405 0.13614446 2.8080246 0
2.0757029 0.14291322 2.9172196 0
2.073489 0.13151331 2.9955025 0
2.0482433 0.031926751 2.515775 0
2.0585618 0.029902652 2.6112354 0
2.0664432 0.038724512 2.7123568 0
2.0863895 0.037534446 2.8168097 0
2.098325 0.035452515 2.9079051 0
2.0895624 0.028754354 2.9778738 0
2.024683 -0.026495188 2.4534478 0
2.054863 -0.042583868 2.5186481 0
2.0684571 -0.047552004 2.6226726 0
2.0667067 -0.038790524 2.6943719 0
2.1033456 -0.031069115 2.8013346 0
2.0920949 -0.041260853 2.906311 0
2.0752816 -0.27809614 2.2759001 0
2.08496 -0.25075758 2.4554844 0
2.1143312 -0.26247889 2.514354 0
2.1238303 -0.26479211 2.6101115 0
2.1347597 -0.28581822 2.6755686 0
2.0995431 -0.36483932 2.276644 0
2.1453497 -0.35146242 2.5115385 0
2.1619627 -0.35172272 2.6021712 0
2.1698046 -0.35391495 2.6899655 0
2.1733203 -0.35757655 2.7868702 0
2.183629 -0.35068744 2.901454 0
2.1970062 -0.34948242 3.0021088 0
2.2055082 -0.36418235 3.0925739 0
2.1133876 -0.45350051 2.2693436 0
2.1665874 -0.45682606 2.5032606 0
2.1865559 -0.45084852 2.6166954 0
2.1870921 -0.461905 2.7098072 0
2.1995482 -0.44563419 2.8100235 0
2.2135236 -0.43498757 2.9045055 0
2.223115 -0.4400847 3.0091212 0
2.2195888 -0.42940003 3.0895877 0
2.0759068 -0.56566316 1.9595939 0
2.1375184 -0.57722467 2.2488887 0
2.1254771 -0.52910137 2.2630768 0
2.1681881 -0.56878221 2.4534681 0
2.185411 -0.54712087 2.5127578 0
2.1976681 -0.55481654 2.6077938 0
2.1965814 -0.5468967 2.7026777 0
2.2106671 -0.55424893 2.8001475 0
2.2327251 -0.54346836 2.8956251 0
2.2380702 -0.53630805 2.9991362 0
2.2478001 -0.55959141 3.0834296 0
2.0952127 -0.72179478 1.9427192 0
2.1417456 -0.67296749 2.2217429 0
2.1875141 -0.64862871 2.4511549 0
2.1930997 -0.66398281 2.5149641 0
2.1862783 -0.64855963 2.593971 0
2.1855891 -0.62226874 2.7031238 0
2.2109697 -0.63921833 2.8100221 0
2.2377636 -0.63059568 2.9105484 0
2.244523 -0.60274661 3.0082264 0
2.0796254 -0.7615124 1.9433688 0
2.1162694 -0.73996484 1.9967321 0
2.1335721 -0.74314845 2.136965 0
2.119215 -0.74968702 2.1936421 0
2.1698778 -0.73296082 2.4341316 0
2.1668453 -0.7373473 2.5112174 0
2.4111578 -1.2496014 2.7988334 0
2.3940725 -1.2465311 2.8824339 0
2.4097626 -1.2633724 2.9702921 0
2.2799909 -1.3858714 2.1533008 0
2.3003759 -1.3678565 2.1639853 0
2.3855703 -1.3153201 2.7880855 0
2.4002335 -1.3191344 2.9007764 0
2.4161019 -1.3080249 2.9883294 0
2.4366655 -1.2707536 3.1183131 0
2.2505116 -1.4624943 1.8179827 0
2.2633622 -1.439361 1.9022212 0
2.2893858 -1.4642057 2.0136657 0
2.2930069 -1.4463913 2.1102982 0
2.3764167 -1.6570764 2.1309564 0
2.3512528 -1.6673385 2.1695325 0
2.4011102 -1.6867101 2.1402347 0
2.3802719 -1.7421811 2.1752522 0
2.4282601 -1.8388495 2.131433 0
2.3966477 -1.8311645 2.1711533 0
2.4496386 -1.9702458 2.0416343 0
2.4312801 -1.9337316 2.1147902 0
2.4028137 -1.9259932 2.1667576 0
2.3478429 -2.0779748 1.7485287 0
2.3819196 -2.0640955 1.7841681 0
2.4402068 -2.0345507 1.9379628 0
2.4467142 -2.0362883 2.0013194 0
2.4340315 -2.0320225 2.1104989 0
2.3390288 -2.1195827 1.7631381 0
2.4083934 -2.1288319 1.8046044 0
2.4449677 -2.1322634 1.9109577 0
2.4563584 -2.1298618 2.0060685 0
2.4385977 -2.1233871 2.0933149 0
2.0058084 0.31656313 2.5647154 0
2.0082762 0.26618332 2.5262842 0
2.0158186 0.27485108 2.5647717 0
2.0487735 -0.27969128 2.0031354 0
2.0836599 -0.27279201 2.0952973 0
2.0941257 -0.26985553 2.2040732 0
2.0946651 -0.28625175 2.2616715 0
2.0770371 -0.36883771 2.0055752 0
2.1091969 -0.36613011 2.0954921 0
2.1242697 -0.36835262 2.2027612 0
2.1153982 -0.37345597 2.2597847 0
2.0962486 -0.46503437 2.0104675 0
2.1340382 -0.46074286 2.1063316 0
2.1432531 -0.46743181 2.2042024 0
2.1265068 -0.4363794 2.2555659 0
2.1179714 -0.55719745 2.0159333 0
2.14867 -0.55617416 2.0982563 0
2.1579657 -0.56065166 2.1963747 0
2.1429944 -0.6607635 2.0181391 0
2.1603947 -0.65622073 2.0968783 0
2.1700566 -0.65497243 2.1860142 0
2.1513445 -0.73063314 2.0433402 0
2.1672189 -0.72315884 2.0975089 0
2.3055425 -1.3909949 1.8169822 0
2.2910719 -1.3893559 1.8752841 0
2.318666 -1.3894331 2.0083122 0
2.2799802 -1.4236159 1.820811 0
2.288003 -1.406274 1.90363 0
2.3105154 -1.4207606 2.0016325 0
2.3221812 -1.3995788 2.0816872 0
2.3627472 -1.6718791 1.8240092 0
2.3754983 -1.6738107 1.8822162 0
2.3951993 -1.6661646 2.000289 0
2.3986318 -1.6699721 2.0903318 0
2.3652647 -1.7347376 1.818699 0
2.397377 -1.7319002 1.8988349 0
2.4035726 -1.7263376 1.9889048 0
2.4155922 -1.7324592 2.0957789 0
2.4041193 -1.8260547 1.8216501 0
2.4226441 -1.8269866 1.8951381 0
2.4295752 -1.8271819 1.995753 0
2.4305358 -1.8233335 2.0825105 0
2.4366713 -1.9406415 1.8227317 0
2.4437866 -1.922111 1.896006 0
2.4424746 -1.9246054 1.9930725 0
2.4408877 -1.9115527 2.0526495 0
2.438561 -2.0356786 1.8274611 0
2.4474957 -2.0226495 1.8958496 0
2.4436128 -1.984678 1.9810346 0
2.4309359 -2.095063 1.8378445 0
2.4542482 -2.106245 1.8960599 0
2.4677939 -2.1240501 1.9546576 0
0.031710267 -1.3167821 3.3281541 0
0.048795223 -1.2865546 3.339294 0
-0.087064922 -1.1346561 3.2347176 0
-0.0050049424 -1.2491333 3.2580867 0
-0.025868952 -1.1788862 3.2657094 0
0.053952396 -1.2257203 3.3094053 0
0.081653893 -1.2710207 3.345602 0
-0.19708866 -0.95989048 3.1316195 0
-0.13688111 -1.0241526 3.1641006 0
-0.18154424 -1.0179664 3.1619229 0
-0.057944596 -1.0639745 3.2042012 0
0.024671018 -1.1057711 3.2502699 0
0.1086359 -1.1511714 3.2893515 0
0.16796529 -1.1447821 3.2934012 0
-0.15998203 -0.90008569 3.1082048 0
-0.086556733 -0.9502306 3.1315598 0
-0.11131525 -0.90429688 3.1043305 0
-0.00031971931 -0.98893964 3.1747031 0
0.078591943 -1.0268848 3.2249823 0
0.15922654 -1.0644076 3.2661157 0
0.20732278 -1.0898873 3.2801824 0
-0.54266614 0.47328782 5.326067 0
-0.48925906 0.44971609 5.3612375 0
-0.41848314 0.42094731 5.4164338 0
-0.36473525 0.39536285 5.4455957 0
-0.1582309 -0.73577189 3.0590165 0
-0.1147123 -0.81330335 3.0709243 0
-0.023082435 -0.88399804 3.1164412 0
-0.049242556 -0.85274506 3.0963981 0
0.041308701 -0.90411389 3.1483922 0
0.12314856 -0.94242799 3.1872537 0
0.20720798 -0.9815495 3.2499661 0
-0.56320751 0.57642746 5.2548351 0
0.26370013 -1.0020359 3.2642572 0
-0.5121851 0.53794527 5.2971354 0
-0.45180017 0.50734854 5.3544106 0
-0.38105571 0.48070145 5.4160213 0
-0.30820739 0.43577886 5.422987 0
-0.20003223 0.38504887 5.5156612 0
-0.23939931 0.42502904 5.5020394 0
-0.12603867 0.30700731 5.4763203 0
-0.13223195 0.36113453 5.5200434 0
-3.9678535 2.3028042 3.2074449 0
-3.9364486 2.294441 3.2427478 0
-3.8577828 2.2529557 3.2730987 0
-3.7760396 2.2186327 3.3295889 0
-3.7184153 2.2068412 3.404644 0
-3.6501327 2.1668243 3.4803181 0
-3.5776355 2.1265347 3.5328293 0
-3.560775 2.1101527 3.6102004 0
-3.5018165 2.1311061 3.5981741 0
-3.4323592 2.0901103 3.673758 0
-3.3767598 2.088583 3.7136419 0
-0.1425392 -0.67784917 3.011734 0
-0.17749655 -0.6366775 3.0145826 0
-0.066906512 -0.7401396 3.0406041 0
0.025867462 -0.83235061 3.1006885 0
0.016925335 -0.78221893 3.0809429 0
0.091533303 -0.84151995 3.1306443 0
0.10457706 -0.79926383 3.1126041 0
0.17709839 -0.86185646 3.1634166 0
-0.62104481 0.70205021 5.1757464 0
0.25851554 -0.90032542 3.2139745 0
-0.56993318 0.66411495 5.2203956 0
0.31466788 -0.92829049 3.2423279 0
-0.49042284 0.62026834 5.2751451 0
-0.41216862 0.58426833 5.351306 0
-0.33874941 0.56897879 5.4055543 0
-0.25814593 0.52333927 5.4460273 0
-0.14027023 0.46349072 5.4723673 0
-0.19648874 0.48255134 5.4747744 0
-0.11001277 0.41410732 5.4975038 0
-3.8953865 2.3437803 3.1892858 0
-3.8119488 2.3078675 3.244822 0
-3.7305603 2.273695 3.3014228 0
-3.6654568 2.2551258 3.3705006 0
-3.5924957 2.2290602 3.4337034 0
-3.5111027 2.1946828 3.489903 0
-3.4474235 2.1780205 3.5616846 0
-3.3748617 2.1525571 3.6260242 0
-3.3209481 2.1340964 3.6750305 0
-0.14435655 -0.53393137 2.9784918 0
-0.097926974 -0.6121043 2.9696152 0
-0.14163226 -0.57427287 2.9757609 0
-0.021223605 -0.6574465 3.0097275 0
0.066910505 -0.70050168 3.0537472 0
-0.77484548 0.88630617 5.0749826 0
0.14884138 -0.74378502 3.0958252 0
-0.65651512 0.79613924 5.1287165 0
-0.70025975 0.84731102 5.1073475 0
0.2259922 -0.80721617 3.1565361 0
0.2297917 -0.75878906 3.1386294 0
-0.60132855 0.76725352 5.1524029 0
0.31097835 -0.8208791 3.19099 0
0.28692323 -0.77258122 3.1647773 0
-0.52952754 0.73583174 5.2006168 0
0.37110114 -0.84214652 3.2211208 0
-0.45801735 0.70610857 5.2531061 0
-0.3865788 0.67795968 5.3100739 0
-0.29678047 0.64048576 5.3758945 0
-0.20638895 0.5907073 5.4081883 0
-0.10946226 0.52576232 5.4371357 0
-0.15260077 0.5581758 5.419199 0
-3.8335414 2.4090054 3.1601603 0
-3.7546763 2.3845599 3.2098007 0
-3.6739979 2.3509178 3.2668984 0
-3.6011186 2.3249724 3.3298416 0
-3.5318031 2.3027225 3.3958769 0
-3.4576256 2.2756081 3.4581828 0
-3.3910608 2.2565312 3.5275421 0
-3.3148086 2.2273796 3.5884624 0
-3.2629433 2.2112803 3.639432 0
-3.2494576 2.2236557 3.6948242 0
-0.10968131 -0.47783232 2.9584246 0
-0.043758869 -0.53758299 2.94173 0
-0.092248201 -0.49911392 2.9505272 0
0.036628485 -0.57811904 2.9789975 0
-0.78950059 1.0062463 5.0180326 0
0.11824507 -0.61858559 3.0263395 0
-0.7248866 0.96689081 5.0639701 0
0.20708483 -0.65988076 3.0682676 0
-0.63164592 0.91785336 5.1052856 0
0.29666907 -0.72456467 3.1259055 0
0.28287339 -0.68984997 3.1029773 0
-0.54979873 0.83902454 5.151525 0
-0.52832007 0.89822197 5.1383257 0
0.3786276 -0.74357975 3.1686347 0
0.33763629 -0.72034514 3.1446748 0
-0.49245095 0.79884827 5.2024474 0
-0.45430386 0.85833275 5.1945114 0
0.4276436 -0.76810217 3.193953 0
-0.4060204 0.77979767 5.258193 0
-0.38378859 0.83691835 5.240756 0
-0.32235515 0.77471209 5.2935181 0
-0.23189127 0.73227239 5.3472538 0
-0.1546675 0.65860152 5.3724465 0
-0.030696273 0.58377004 5.4022293 0
-0.083141446 0.62309527 5.4096341 0
0.011053324 0.67046762 5.4734979 0
-3.7807436 2.5095091 3.1477559 0
-3.6966543 2.4604273 3.174118 0
-3.6147747 2.4253855 3.2302752 0
-3.5415571 2.399215 3.2928729 0
-3.4706674 2.375545 3.357543 0
-3.4005895 2.3529203 3.4233015 0
-3.3317003 2.331758 3.4905884 0
-3.2561646 2.3034456 3.5521491 0
-3.203615 2.2868679 3.6024444 0
-3.1731536 2.281106 3.6408019 0
-3.1227548 2.288636 3.6649938 0
-0.93954992 -0.65930963 0.95196545 0
-0.77089465 -0.86696601 0.78492224 0
-0.84304267 -0.77069092 0.91363448 0
-0.88165557 -0.66905737 0.96895075 0
-0.87759924 -0.64418554 1.0010166 0
-0.70988011 -0.90331089 0.81716549 0
-0.73555362 -0.85720909 0.88509643 0
-0.79710829 -0.80465674 0.92123902 0
-0.78744441 -0.68290639 1.0346279 0
-0.79193461 -0.65861106 1.0502172 0
-0.54924381 -1.0409273 0.7339316 0
-0.59436351 -0.99828446 0.77931511 0
-0.63923198 -0.94745934 0.86044288 0
-0.6471191 -0.88370347 0.89712214 0
-0.71101326 -0.71457338 1.067958 0
-0.75044012 -0.67055666 1.0788472 0
-0.44460455 -1.1244195 0.7072711 0
-0.48551375 -1.0806843 0.74568552 0
-0.53201181 -1.0351954 0.82893533 0
-0.56206745 -0.95997864 0.92072833 0
-0.57366639 -0.89765573 0.9137125 0
-0.61232609 -0.77099895 1.0908585 0
-0.39856243 -1.1457803 0.73361987 0
-0.4111138 -1.1152544 0.79857051 0
-0.45753741 -1.0696034 0.88749051 0
-0.482463 -0.98978329 0.96640998 0
-0.51665664 -0.8276878 1.1280209 0
-0.5478937 -0.80339646 1.1212254 0
-0.31704617 -1.1703898 0.81163913 0
-0.33706903 -1.1488338 0.85512429 0
-0.38270932 -1.1009326 0.94378227 0
-0.40123466 -1.0265685 1.0110614 0
-0.43908653 -0.87138337 1.1545975 0
-0.23407295 -1.2171884 0.85495937 0
-0.26769847 -1.1788846 0.91422546 0
-0.30789667 -1.1337996 1.0031579 0
-0.31800622 -1.0625105 1.0557435 0
-0.35894334 -0.91062868 1.1982239 0
-0.24700385 -1.1749538 0.9895609 0
-0.23905958 -1.1544445 1.0706269 0
-0.24126568 -1.0958302 1.0954876 0
-0.27605873 -0.95202792 1.2438751 0
-0.17229617 -1.1775261 1.1106032 0
-0.20952924 -1.1210468 1.1673372 0
-0.20290767 -1.1049206 1.2298493 0
-0.048459589 -0.41651261 2.9059322 0
0.015076816 -0.45667529 2.9139044 0
-0.032648444 -0.42803061 2.9035356 0
0.09561038 -0.49686074 2.9550512 0
-0.73568451 1.1026171 5.0044527 0
0.17597473 -0.53653979 2.9976072 0
-0.66104662 1.0651846 5.0433102 0
0.25668031 -0.575387 3.0435238 0
-0.586101 1.0244788 5.0748506 0
0.33670402 -0.61548543 3.0848064 0
-0.49326205 0.97380126 5.113378 0
0.43133497 -0.66622531 3.1382928 0
0.40608603 -0.64701247 3.1198268 0
-0.40233266 0.93252325 5.1711998 0
0.48066509 -0.69224596 3.1697502 0
0.50059462 -0.64967632 3.1597476 0
-0.32998967 0.90282905 5.2248039 0
-0.25731516 0.86936998 5.2699709 0
-0.18473887 0.83776855 5.3194637 0
-0.098578095 0.68475509 5.3143983 0
-0.10020936 0.7727679 5.3399901 0
-0.017646551 0.72145677 5.4008627 0
0.050553679 0.7260288 5.4577627 0
-3.7370901 2.6101246 3.0659981 0
-3.7048736 2.5675573 3.0994163 0
-3.6400421 2.5376906 3.1393986 0
-3.5611129 2.5056362 3.1978178 0
-3.4878874 2.4796567 3.2605345 0
-3.4104471 2.4490607 3.3198569 0
-3.3395226 2.4257336 3.3847995 0
-3.2674155 2.4012125 3.449017 0
-3.1942751 2.3756733 3.5126402 0
-3.1251426 2.3549628 3.5805848 0
-3.0305891 2.3248377 3.5935566 0
-3.0988541 2.3334572 3.6524773 0
-0.78694457 -0.65415597 1.0229604 0
-0.76711822 -0.63643771 1.0606012 0
-0.59814924 -0.85635793 0.89028192 0
-0.68177849 -0.69620633 1.0835185 0
-0.72446698 -0.66404808 1.086635 0
-0.51077694 -0.90275162 0.93670261 0
-0.54832351 -0.88218975 0.91663516 0
-0.600079 -0.74170655 1.1024374 0
-0.45660293 -0.92984134 0.96517873 0
-0.49437702 -0.9007498 0.95097303 0
-0.50655693 -0.81427395 1.1289781 0
-0.52081525 -0.77735436 1.1360068 0
-0.37519658 -0.97116727 1.0065022 0
-0.42747399 -0.83774948 1.1685603 0
-0.46007997 -0.79099631 1.1672372 0
-0.291623 -1.0146511 1.0498557 0
-0.35199106 -0.87525928 1.2075564 0
-0.37516344 -0.82872242 1.2154554 0
-0.22080415 -1.0490143 1.0870354 0
-0.2796272 -0.92206132 1.2440548 0
0.0095838904 -0.32626426 2.8921361 0
0.072866857 -0.39215195 2.897512 0
0.05154705 -0.34383261 2.8853819 0
0.15151328 -0.41060865 2.9277065 0
-0.68224096 1.1722398 4.9918976 0
0.23595876 -0.45506537 2.9742785 0
-0.60768843 1.1352538 5.0324111 0
-0.61553133 1.1755022 5.0159817 0
0.31633723 -0.49511385 3.0174882 0
-0.53503048 1.1064984 5.0648007 0
0.39476252 -0.53559971 3.0617504 0
-0.4419328 1.0545348 5.1023812 0
0.49051535 -0.61657631 3.1245322 0
0.47312951 -0.56987309 3.1017437 0
-0.3505038 1.0112548 5.1568933 0
0.51376998 -0.61589038 3.1347218 0
0.54810089 -0.60083389 3.1534314 0
-0.27770209 0.9790225 5.2053385 0
-0.20485485 0.94411182 5.2477913 0
-0.13217413 0.90949821 5.2906904 0
-0.032037854 0.86128867 5.3347273 0
-0.090869188 0.8669827 5.3330688 0
0.048716784 0.82113516 5.3923559 0
0.12019324 0.8027463 5.4468775 0
-3.7338381 2.6626523 3.0374033 0
-3.6440363 2.6405485 3.061594 0
-3.5864563 2.618325 3.1068251 0
-3.5105686 2.5896068 3.167681 0
-3.4339552 2.560041 3.2279305 0
-3.3586309 2.5319476 3.2891755 0
-3.2857978 2.5067792 3.35267 0
-3.2131972 2.4820051 3.4166408 0
-3.1419387 2.4590173 3.4822469 0
-3.0597796 2.4227812 3.5371931 0
-2.9916203 2.3873665 3.5713096 0
-0.16321915 -1.1453676 0.59255558 0
0.07096839 -0.21414983 2.8626401 0
0.13281864 -0.2983942 2.8455415 0
0.11156476 -0.27705669 2.8607953 0
0.20087636 -0.32640529 2.8998351 0
-0.63337445 1.2673824 4.9795818 0
0.28316295 -0.36402726 2.9427075 0
-0.55823094 1.2285751 5.0178485 0
0.36207557 -0.40433669 2.9889891 0
-0.46452188 1.1776325 5.0601959 0
-0.50193983 1.1982604 5.0439 0
0.44213468 -0.44573045 3.0298893 0
-0.40860796 1.1461277 5.0830736 0
0.52528846 -0.48425913 3.081811 0
-0.3163259 1.096079 5.1250124 0
0.59821904 -0.52157128 3.1199901 0
-0.22499716 1.0533279 5.1809702 0
-0.15210783 1.0190777 5.2253685 0
-0.079537392 0.98006868 5.2591338 0
0.0099409819 0.92444181 5.2847233 0
0.10073018 0.88823593 5.3538733 0
0.17641044 0.85767817 5.4327269 0
0.17042804 0.89612818 5.4160767 0
-3.5852296 2.7298207 3.0539706 0
-3.5083723 2.7073836 3.1055603 0
-3.4607215 2.6679201 3.1472797 0
-3.3794484 2.6400452 3.1947861 0
-3.3035052 2.6113331 3.2556591 0
-3.2363575 2.5933578 3.3243375 0
-3.1779294 2.5686598 3.3893242 0
-3.1393714 2.5924697 3.4036212 0
-3.091454 2.5451555 3.4536602 0
-3.0174751 2.5194292 3.5174007 0
0.11160916 -0.17645025 2.8254972 0
0.16971308 -0.20460117 2.8344188 0
0.27505493 -0.26251352 2.8902752 0
0.23973328 -0.23695147 2.8687034 0
-0.59997851 1.3584868 4.9533587 0
0.33678782 -0.28932202 2.9231811 0
-0.51486027 1.3222092 4.9999714 0
0.41791368 -0.33007944 2.9680309 0
-0.43066657 1.2677656 5.0348454 0
0.50009763 -0.36972857 3.016355 0
-0.35422337 1.2154902 5.0704899 0
-0.36128438 1.2546279 5.0516615 0
0.58013999 -0.4122777 3.0560055 0
-0.28215301 1.1873169 5.1044941 0
0.65289289 -0.45009041 3.0934196 0
-0.19042253 1.1439346 5.160213 0
-0.099070072 1.0951972 5.2046008 0
-0.026709676 1.052212 5.2309065 0
0.062327027 0.99474347 5.254005 0
0.15326834 0.95869756 5.3232608 0
0.19664764 0.93032014 5.3977633 0
0.22378504 0.96952748 5.3909335 0
-3.5341256 2.8143735 3.0229678 0
-3.4565294 2.7842321 3.0834749 0
-3.3786273 2.7536371 3.1435688 0
-3.3128357 2.7215953 3.1825149 0
-3.2509847 2.6941667 3.224283 0
-3.1851289 2.6784139 3.2944102 0
-3.1383152 2.670192 3.3499115 0
-3.0983586 2.6535959 3.3790383 0
-3.0326791 2.6211355 3.4169419 0
-2.9604325 2.6182199 3.4534187 0
-2.9606841 2.5915382 3.4924877 0
0.16284877 -0.092266917 2.806932 0
0.21851104 -0.12029624 2.814182 0
0.31587368 -0.21332967 2.8701286 0
0.30285412 -0.16177332 2.8474197 0
-0.56453109 1.4395895 4.9089303 0
0.38849878 -0.22741842 2.9053178 0
0.38261867 -0.17540848 2.8813982 0
-0.47143328 1.397997 4.9706359 0
0.46696478 -0.25344682 2.9390073 0
-0.37751651 1.3463142 5.0143075 0
0.54660434 -0.29081905 2.9857154 0
-0.30296206 1.3050021 5.0484405 0
0.62648845 -0.33220434 3.0321672 0
-0.22734499 1.2578244 5.0938435 0
-0.23411393 1.2955489 5.072185 0
0.70648926 -0.37185025 3.0689681 0
-0.14709473 1.2226362 5.1398787 0
-0.05388093 1.1829954 5.1804705 0
0.026818871 1.1309533 5.2157879 0
0.11822271 1.0595994 5.2487679 0
0.11187887 1.1066124 5.236702 0
0.20643187 1.0326833 5.3002458 0
0.2651068 1.030419 5.3844953 0
0.31615376 1.0369998 5.4123955 0
-3.4685464 2.8819239 2.981442 0
-3.4032676 2.8668826 3.0510473 0
-3.3289208 2.8407834 3.1141038 0
-3.2615185 2.8064737 3.1519561 0
-3.1875787 2.781476 3.2032416 0
-3.1302934 2.7526016 3.270709 0
-3.0834234 2.7517328 3.3168449 0
-3.0282378 2.7400353 3.3555756 0
-2.9694796 2.6708779 3.4046612 0
-2.9805379 2.7061448 3.3867731 0
-2.8946176 2.6840355 3.4740541 0
0.22958392 0.018873096 2.7645407 0
0.20726138 0.006654501 2.7970581 0
0.26591605 -0.036233187 2.7902808 0
-0.56560719 1.5331484 4.8327031 0
0.35865325 -0.08225584 2.8220034 0
-0.49156904 1.5025191 4.886507 0
0.43990552 -0.12218392 2.8660703 0
-0.38776064 1.4636419 4.9488478 0
0.53530508 -0.17345214 2.9279301 0
0.50552613 -0.14291608 2.9028053 0
-0.32395387 1.4244195 4.9921527 0
0.60639316 -0.20174694 2.9667015 0
-0.24948621 1.3840686 5.0288658 0
0.6865654 -0.24601781 3.0059447 0
-0.15700948 1.3326567 5.0720882 0
-0.19388688 1.3522533 5.0532222 0
0.76638836 -0.29064333 3.0438585 0
-0.10184813 1.3046746 5.1026783 0
-0.010002017 1.261349 5.1594501 0
0.081444025 1.2164105 5.2126584 0
0.15372682 1.1752949 5.2445889 0
0.22908604 1.1007786 5.279984 0
0.22445858 1.1463788 5.2764511 0
0.29923713 1.1057419 5.332922 0
0.35500133 1.0851592 5.3775678 0
-3.4095454 2.9502325 2.953764 0
-3.3476174 2.9468594 3.0167105 0
-3.2727075 2.9202502 3.0794215 0
-3.1874576 2.8800247 3.1336648 0
-3.1147046 2.8563192 3.198175 0
-3.044889 2.8368731 3.2657452 0
-2.9735923 2.8157578 3.3325145 0
-2.9113526 2.7876499 3.374125 0
-2.840394 2.7509589 3.4263487 0
-2.7700279 2.74667 3.4448195 0
0.26861984 0.064171314 2.7339563 0
0.32808053 0.036925554 2.7592378 0
-0.52726483 1.6045011 4.8344965 0
0.41107446 -0.0079191923 2.7904921 0
-0.4571687 1.5947911 4.8592377 0
0.49596655 -0.048776984 2.8370762 0
-0.37354958 1.5475188 4.9098015 0
0.57471573 -0.079155445 2.8944621 0
-0.27938735 1.5066077 4.9628553 0
0.65592939 -0.12589073 2.9375491 0
0.62347001 -0.096391678 2.9189649 0
-0.19557464 1.4598894 5.0028658 0
0.73144078 -0.16363382 2.9793506 0
-0.12163329 1.4169306 5.0351157 0
0.81870812 -0.20436597 3.0294018 0
-0.046384215 1.3703229 5.0822606 0
-0.052915096 1.4077336 5.0596895 0
0.86736107 -0.22313547 3.042583 0
0.025597692 1.3459921 5.1241951 0
0.11760378 1.3045418 5.1847315 0
0.20875144 1.2572124 5.233943 0
0.28188896 1.2223785 5.2787218 0
0.40421605 1.1392791 5.3110476 0
0.35100806 1.1859111 5.2958879 0
-3.4137878 3.0994186 2.866936 0
-3.3624098 3.0476332 2.9161725 0
-3.2904701 3.0250335 2.9811227 0
-3.2131386 2.9952941 3.0419865 0
-3.1310272 2.9589953 3.0987847 0
-3.0566964 2.933373 3.1619952 0
-2.9862323 2.9332683 3.2002838 0
-2.9827576 2.9018869 3.2353654 0
-2.9134552 2.8905973 3.2944109 0
-2.8345017 2.8587563 3.3538306 0
-2.7709017 2.8282175 3.3936551 0
-2.7456498 2.7923303 3.4318624 0
0.33872336 0.1472075 2.7070765 0
0.38930023 0.11264801 2.7294412 0
0.4633714 0.074266195 2.7703066 0
-0.38460374 1.6673893 4.8512301 0
-0.43596244 1.6678641 4.8374095 0
0.546848 0.040555477 2.8175774 0
-0.32824922 1.6394936 4.8845248 0
0.6266588 0.00062143803 2.862824 0
-0.23455095 1.5896258 4.934186 0
0.71663749 -0.077636242 2.9279394 0
0.70546144 -0.032626152 2.9069891 0
-0.14140332 1.5382364 4.9805069 0
0.78403896 -0.087188005 2.9559827 0
0.78521198 -0.032181025 2.9311085 0
-0.067426801 1.4968748 5.0163651 0
0.86984938 -0.12876201 2.9939265 0
0.0064846277 1.4618276 5.0623541 0
0.91810012 -0.15919089 3.0160208 0
0.080464005 1.4289 5.111846 0
0.19039762 1.3720102 5.1724234 0
0.13575876 1.402483 5.1459012 0
0.27444994 1.3392528 5.2026587 0
0.3411448 1.3118678 5.2508364 0
0.40952992 1.2627828 5.2994146 0
0.52073443 1.2302334 5.2911344 0
0.47436845 1.2414193 5.299469 0
-3.3685927 3.1555569 2.8195968 0
-3.3035736 3.1232834 2.8792634 0
-3.2483916 3.0847831 2.9549723 0
-3.1504841 3.0592623 3.0113525 0
-3.0724764 3.03512 3.0620413 0
-3.0088232 3.0048587 3.1226969 0
-2.9404602 2.968281 3.1997819 0
-2.8691278 2.9477627 3.2665224 0
-2.7919979 2.9186993 3.3278363 0
-2.7216353 2.8798728 3.4042659 0
0.38208669 0.23245192 2.6823883 0
0.42909938 0.20298588 2.6976318 0
0.51721865 0.15784025 2.7456317 0
-0.33835447 1.7613463 4.820509 0
0.60251474 0.1226033 2.7954526 0
-0.27197194 1.7055341 4.8615131 0
-0.27883744 1.7452562 4.8400187 0
0.68461424 0.078061104 2.8402133 0
-0.18003345 1.6629319 4.9024291 0
0.76161307 0.03368485 2.8789711 0
-0.08694315 1.6155853 4.9558659 0
0.85090262 -0.01445365 2.9344511 0
0.8207283 0.012752652 2.9127347 0
-0.012787819 1.5777705 4.9982166 0
0.90553266 -0.051765084 2.969229 0
0.93966913 -0.012664199 2.9840522 0
0.061410427 1.5436171 5.0462484 0
0.98095828 -0.061795235 3.0115776 0
0.14599371 1.5104605 5.0917311 0
0.2576282 1.4600003 5.1294141 0
0.20350003 1.4931333 5.1069593 0
0.33206046 1.4301369 5.1627474 0
0.40567207 1.3957319 5.2307315 0
0.49992299 1.3613379 5.3050117 0
0.45304215 1.3940144 5.2919645 0
0.54345965 1.3376265 5.2742782 0
0.50585675 1.3838561 5.3473997 0
-3.3427269 3.2178714 2.7946448 0
-3.2614446 3.1827674 2.8529339 0
-3.2068918 3.1454947 2.9292517 0
-3.1299396 3.1230657 2.9812045 0
-3.0334167 3.0993273 3.0385606 0
-2.971539 3.0517855 3.1092443 0
-2.9403148 3.0676396 3.1177342 0
-2.9011769 3.0328143 3.1765902 0
-2.8273902 3.0089204 3.2411468 0
-2.7490439 2.9780669 3.3013511 0
-2.6778293 2.958879 3.3693838 0
0.4381417 0.30358869 2.643966 0
0.48792475 0.27652597 2.6721632 0
-0.3584913 1.8676538 4.7361102 0
0.56945491 0.23447156 2.7231817 0
-0.29443705 1.8367693 4.7936139 0
0.64760548 0.20112181 2.7694283 0
-0.21387529 1.7635994 4.84655 0
-0.2206862 1.805369 4.827702 0
0.72833627 0.16409397 2.8053646 0
-0.12535799 1.7403682 4.8766298 0
0.80745149 0.12012172 2.8523602 0
-0.032347202 1.6901489 4.9263563 0
0.90000957 0.023366213 2.9252601 0
0.88965654 0.090746284 2.9015756 0
0.055368662 1.6698167 4.9600396 0
0.97221267 0.038023114 2.9425235 0
0.97477317 0.053259373 2.9570699 0
0.12940538 1.6337106 5.0052156 0
1.0454195 0.017735839 2.991631 0
1.0045674 0.0014793873 2.9966273 0
0.20326412 1.5974967 5.0499291 0
0.3119396 1.5329978 5.0994301 0
0.28870833 1.5866899 5.0772467 0
0.39948773 1.5184603 5.1414862 0
0.35929132 1.5698726 5.1110716 0
0.45640385 1.500085 5.1895533 0
0.56115294 1.4667611 5.2613354 0
0.49451971 1.4691238 5.2467699 0
-3.1975753 2.6650779 1.4608786 0
-3.1708508 2.6704254 1.5024922 0
-3.0733848 2.6660421 1.6235274 0
-3.0220146 2.6542015 1.6750575 0
-3.309628 3.2836258 2.7837558 0
-3.2273912 3.2539439 2.8324389 0
-2.7121086 2.5070214 1.8889205 0
-3.1508703 3.2256794 2.8943479 0
-2.6747732 2.4998507 1.9276631 0
-3.0743399 3.1974077 2.9561725 0
-3.0083566 3.1438293 3.0237331 0
-2.982645 3.1875684 3.008347 0
